0.0401185 -0.078036 -0.630239 3 1 0
0.0401361 -0.0780323 -0.630265 3 1 0
0.0401537 -0.0780306 -0.630291 3 1 0
0.0401716 -0.0779919 -0.630312 3 1 0
0.0401892 -0.077991 -0.630339 3 1 0
0.0402069 -0.0779922 -0.630365 3 1 0
0.0402247 -0.0779711 -0.630389 3 1 0
0.0402425 -0.0779746 -0.630415 3 1 0
0.0402602 -0.0779801 -0.630441 3 1 0
0.0402779 -0.0779778 -0.630464 3 1 0
0.0402957 -0.0779868 -0.63049 3 1 0
0.0403134 -0.0779979 -0.630516 3 1 0
0.0403308 -0.0780121 -0.630541 3 1 0
0.0403485 -0.0780273 -0.630567 3 1 0
0.0403485 -0.0780273 -0.630567 4 1 0
0.0403503 -0.078029 -0.630568 4 1 0
0.0403508 -0.07803 -0.630569 3 1 0
0.0403518 -0.0779525 -0.63058 3 1 0
0.0403554 -0.077956 -0.630586 3 1 0
0.0403602 -0.0779605 -0.630593 3 1 0
0.0403693 -0.0779398 -0.630609 3 1 0
0.040389 -0.0779584 -0.630642 3 1 0
0.0404095 -0.0779813 -0.630676 3 1 0
0.0404271 -0.0779873 -0.630712 3 1 0
0.0404477 -0.0780188 -0.630746 3 1 0
0.0404682 -0.0780538 -0.63078 3 1 0
0.0404909 -0.0782034 -0.630801 3 1 0
0.0405118 -0.0782514 -0.630838 3 1 0
0.0405327 -0.078303 -0.630874 3 1 0
0.040553 -0.0784234 -0.630913 3 1 0
0.0405739 -0.078486 -0.630948 3 1 0
0.0405949 -0.0785526 -0.630983 3 1 0
0.0406167 -0.0787588 -0.631017 3 1 0
0.0406379 -0.0788381 -0.631052 4 1 0
0.040659 -0.0789213 -0.631087 3 1 0
0.0406804 -0.0790432 -0.63112 3 1 0
0.0407017 -0.0791354 -0.631156 3 1 0
0.040723 -0.0792317 -0.631191 3 1 0
0.0407444 -0.0794005 -0.631226 3 1 0
0.0407659 -0.0795068 -0.631261 3 1 0
0.0407874 -0.0796173 -0.631296 3 1 0
0.040809 -0.0798643 -0.631331 3 1 0
0.0408306 -0.0799865 -0.631365 3 1 0
0.0408522 -0.0801127 -0.6314 3 1 0
0.040874 -0.0799474 -0.631435 3 1 0
0.0408958 -0.0797652 -0.631469 3 1 0
0.0409176 -0.0795864 -0.631504 3 1 0
0.0409395 -0.0792629 -0.631538 3 1 0
0.0409615 -0.0790942 -0.631572 3 1 0
0.0409836 -0.0789288 -0.631606 3 1 0
0.0410064 -0.0785102 -0.631631 3 1 0
0.0410287 -0.0783575 -0.631665 3 1 0
0.041051 -0.0782084 -0.631698 3 1 0
0.0410787 -0.0775428 -0.631718 4 1 0
0.0411006 -0.0774296 -0.631748 3 1 0
0.0411222 -0.0773207 -0.631778 3 1 0
0.0411317 -0.0783866 -0.63185 3 1 0
0.0411536 -0.0782448 -0.631885 3 1 0
0.0411749 -0.0781103 -0.631919 3 1 0
0.0412057 -0.0767152 -0.631921 3 1 0
0.0412266 -0.0766362 -0.631954 3 1 0
0.0412471 -0.0765615 -0.631986 3 1 0
0.0412592 -0.0779405 -0.631964 3 1 0
0.0412817 -0.0778033 -0.632003 3 1 0
0.0413033 -0.0776747 -0.632041 3 1 0
0.0413273 -0.077104 -0.632115 3 1 0
0.0413501 -0.0769871 -0.632153 3 1 0
0.0413727 -0.0768747 -0.632191 3 1 0
0.0413996 -0.0763503 -0.632223 3 1 0
0.0414174 -0.076306 -0.632241 3 1 0
0.0414307 -0.0762736 -0.632253 3 1 0
0.0414366 -0.0767953 -0.632283 3 1 0
0.0414515 -0.0767423 -0.6323 3 1 0
0.0414661 -0.0766912 -0.632316 3 1 0
0.0414896 -0.0761236 -0.632247 3 1 0
0.0415079 -0.0760745 -0.632268 3 1 0
0.0415256 -0.0760286 -0.632287 3 1 0
0.0415324 -0.0766263 -0.632395 3 1 0
0.0415516 -0.0765484 -0.63242 3 1 0
0.0415702 -0.0764749 -0.632445 3 1 0
0.0415967 -0.0758225 -0.632408 3 1 0
0.041618 -0.0757713 -0.632444 3 1 0
0.0416386 -0.0757238 -0.63248 3 1 0
0.0416499 -0.076354 -0.632553 3 1 0
0.0416722 -0.0762603 -0.632584 3 1 0
0.0416938 -0.0761726 -0.632615 3 1 0
0.041723 -0.0755787 -0.632632 3 1 0
0.0417533 -0.0755027 -0.632694 3 1 0
0.0417764 -0.0754492 -0.632741 3 1 0
0.0417918 -0.0758359 -0.632769 3 1 0
0.041816 -0.0757316 -0.632809 3 1 0
0.0418396 -0.0756341 -0.632848 3 1 0
0.0418724 -0.075353 -0.632931 3 1 0
0.0418965 -0.0752913 -0.632978 3 1 0
0.0419201 -0.0752351 -0.633024 3 1 0
0.0419353 -0.0752289 -0.63301 3 1 0
0.0419597 -0.0751574 -0.633061 3 1 0
0.0419837 -0.0750915 -0.633111 3 1 0
0.0420093 -0.0750226 -0.633186 3 1 0
0.0420233 -0.0749908 -0.633214 4 1 0
0.0420483 -0.0749385 -0.633264 3 1 0
0.0420707 -0.0748896 -0.633296 3 1 0
0.0420857 -0.0748596 -0.633327 4 1 0
0.042111 -0.0748127 -0.633378 3 1 0
0.0421351 -0.0747713 -0.633433 3 1 0
0.0421544 -0.0747386 -0.633471 4 1 0
0.0421812 -0.0746973 -0.633524 3 1 0
0.042205 -0.0746534 -0.633575 3 1 0
0.0422296 -0.0746204 -0.633623 3 1 0
0.0422543 -0.0745915 -0.633671 3 1 0
0.0422784 -0.0745468 -0.633719 3 1 0
0.0423032 -0.0745218 -0.633767 3 1 0
0.0423281 -0.0745009 -0.633815 3 1 0
0.0423525 -0.0744582 -0.633863 3 1 0
0.0423775 -0.0744417 -0.633911 3 1 0
0.0424025 -0.0744293 -0.633959 3 1 0
0.0424271 -0.0743863 -0.634006 3 1 0
0.0424524 -0.0743782 -0.634054 3 1 0
0.0424776 -0.0743741 -0.634102 3 1 0
0.0425025 -0.0743327 -0.634149 3 1 0
0.0425279 -0.0743331 -0.634197 3 1 0
0.0425534 -0.0743376 -0.634244 3 1 0
0.0425785 -0.0742971 -0.634292 3 1 0
0.0426041 -0.0743061 -0.63434 3 1 0
0.0426298 -0.0743192 -0.634387 3 1 0
0.0426551 -0.0742804 -0.634435 3 1 0
0.042681 -0.074298 -0.634482 3 1 0
0.0427069 -0.0743197 -0.634529 3 1 0
0.0427324 -0.0742825 -0.634577 3 1 0
0.0427585 -0.0743088 -0.634624 3 1 0
0.0427846 -0.0743392 -0.634672 3 1 0
0.0428104 -0.0743039 -0.63472 3 1 0
0.0428367 -0.074339 -0.634767 3 1 0
0.042863 -0.0743781 -0.634814 3 1 0
0.0428891 -0.0743448 -0.634862 3 1 0
0.0429156 -0.0743886 -0.634909 3 1 0
0.0429421 -0.0744366 -0.634956 3 1 0
0.0429684 -0.0744054 -0.635005 3 1 0
0.0429951 -0.0744581 -0.635051 3 1 0
0.0430219 -0.0745148 -0.635098 3 1 0
0.0430485 -0.0744858 -0.635147 3 1 0
0.0430754 -0.0745474 -0.635194 3 1 0
0.0431024 -0.074613 -0.635241 3 1 0
0.0431292 -0.074586 -0.635289 3 1 0
0.0431563 -0.0746565 -0.635336 3 1 0
0.0431835 -0.0747309 -0.635383 3 1 0
0.0432106 -0.0747057 -0.635432 3 1 0
0.043238 -0.074785 -0.635478 3 1 0
0.0432654 -0.0748683 -0.635533 3 1 0
0.0432927 -0.0748415 -0.63559 3 1 0
0.0433203 -0.0749296 -0.635647 3 1 0
0.043348 -0.0750218 -0.635705 3 1 0
0.0433756 -0.0750145 -0.635758 3 1 0
0.0434034 -0.0751119 -0.635816 3 1 0
0.0434313 -0.0750573 -0.635873 3 1 0
0.0434592 -0.0749283 -0.635927 3 1 0
0.0434873 -0.0747495 -0.635985 3 1 0
0.0435154 -0.0745743 -0.636043 3 1 0
0.0435435 -0.0744519 -0.636098 3 1 0
0.0435718 -0.0742822 -0.636156 3 1 0
0.0436002 -0.0741161 -0.636213 3 1 0
0.0436286 -0.0739978 -0.636269 3 1 0
0.0436571 -0.0738373 -0.636327 3 1 0
0.0436857 -0.0736803 -0.636384 3 1 0
0.0437144 -0.0735675 -0.63644 3 1 0
0.0437432 -0.0734161 -0.636498 3 1 0
0.043772 -0.0732683 -0.636555 3 1 0
0.043801 -0.073161 -0.636611 3 1 0
0.04383 -0.0730188 -0.636669 3 1 0
0.0438591 -0.0728802 -0.636727 3 1 0
0.0438883 -0.0727784 -0.636783 3 1 0
0.0439176 -0.0726454 -0.636841 3 1 0
0.0439469 -0.072516 -0.636898 3 1 0
0.0439764 -0.0724198 -0.636955 3 1 0
0.0440059 -0.0722961 -0.637013 3 1 0
0.0440355 -0.0721759 -0.63707 3 1 0
0.0440653 -0.0720854 -0.637127 3 1 0
0.0440951 -0.0719709 -0.637185 3 1 0
0.0441249 -0.07186 -0.637242 3 1 0
0.044155 -0.0717752 -0.6373 3 1 0
0.044185 -0.07167 -0.637357 3 1 0
0.0442151 -0.0715684 -0.637415 3 1 0
0.0442454 -0.0714893 -0.637473 3 1 0
0.0442757 -0.0713935 -0.63753 3 1 0
0.0443061 -0.0713012 -0.637588 3 1 0
0.0443367 -0.0712278 -0.637646 3 1 0
0.0443673 -0.0711413 -0.637704 3 1 0
0.0443979 -0.0710583 -0.637761 3 1 0
0.0444288 -0.0709907 -0.63782 3 1 0
0.0444596 -0.0709136 -0.637877 3 1 0
0.0444905 -0.0708399 -0.637935 3 1 0
0.0445217 -0.0707781 -0.637994 3 1 0
0.0445528 -0.0707103 -0.638052 3 1 0
0.044584 -0.0706461 -0.638109 3 1 0
0.0446154 -0.0705901 -0.638169 3 1 0
0.0446468 -0.0705317 -0.638227 3 1 0
0.0446783 -0.0704768 -0.638284 3 1 0
0.04471 -0.0704266 -0.638344 3 1 0
0.0447417 -0.0703775 -0.638402 3 1 0
0.0447734 -0.0703321 -0.63846 3 1 0
0.0448055 -0.0702877 -0.638521 3 1 0
0.0448374 -0.070248 -0.638579 3 1 0
0.0448694 -0.070212 -0.638637 3 1 0
0.0449017 -0.0701734 -0.638698 3 1 0
0.044934 -0.0701431 -0.638756 3 1 0
0.0449663 -0.0701165 -0.638814 3 1 0
0.0449989 -0.0700837 -0.638876 3 1 0
0.0450314 -0.0700628 -0.638935 3 1 0
0.045064 -0.0700456 -0.638993 3 1 0
0.0450969 -0.0700185 -0.639057 3 1 0
0.0451297 -0.0700071 -0.639115 3 1 0
0.0451626 -0.0699992 -0.63918 3 1 0
0.0451958 -0.0699778 -0.63924 3 1 0
0.0452289 -0.0699757 -0.639308 3 1 0
0.0452621 -0.0699772 -0.639376 3 1 0
0.0452956 -0.0699611 -0.639434 3 1 0
0.045329 -0.0699683 -0.639502 3 1 0
0.0453624 -0.0699792 -0.639571 3 1 0
0.0453965 -0.0699668 -0.639621 3 1 0
0.0454302 -0.0699833 -0.63969 3 1 0
0.0454639 -0.0700033 -0.63976 3 1 0
0.0454992 -0.0699948 -0.639823 3 1 0
0.0455332 -0.0700205 -0.639885 4 1 0
0.0455671 -0.0700496 -0.639946 3 1 0
0.0456011 -0.0700612 -0.64002 3 1 0
0.0456353 -0.0700967 -0.640091 3 1 0
0.0456696 -0.0701358 -0.640161 3 1 0
0.0457043 -0.0701734 -0.640269 3 1 0
0.0457278 -0.0702033 -0.640315 4 1 0
0.0457628 -0.0702525 -0.640382 3 1 0
0.045799 -0.0702625 -0.64045 3 1 0
0.045834 -0.0703171 -0.640516 4 1 0
0.0458692 -0.0703753 -0.640582 3 1 0
0.0459051 -0.0703711 -0.64065 3 1 0
0.0459405 -0.0703279 -0.640716 3 1 0
0.045976 -0.070162 -0.640783 3 1 0
0.0460121 -0.0700004 -0.64085 3 1 0
0.0460478 -0.0698407 -0.640916 3 1 0
0.0460837 -0.0696842 -0.640983 3 1 0
0.0461201 -0.0695321 -0.64105 3 1 0
0.0461562 -0.0693818 -0.641117 3 1 0
0.0461924 -0.0692348 -0.641184 3 1 0
0.0462291 -0.0690921 -0.641253 3 1 0
0.0462655 -0.0689514 -0.64132 3 1 0
0.0463021 -0.0688138 -0.641387 3 1 0
0.0463391 -0.0686807 -0.641458 3 1 0
0.0463759 -0.0685495 -0.641525 3 1 0
0.0464128 -0.0684214 -0.641592 3 1 0
0.04645 -0.0682974 -0.641651 3 1 0
0.0464872 -0.0681757 -0.641718 3 1 0
0.0465244 -0.0680572 -0.641785 3 1 0
0.0465618 -0.0679423 -0.641834 3 1 0
0.0465993 -0.0678302 -0.6419 3 1 0
0.046637 -0.0677212 -0.641965 3 1 0
0.0466747 -0.067616 -0.642023 3 1 0
0.0467126 -0.0675135 -0.642098 3 1 0
0.0467506 -0.0674141 -0.642173 3 1 0
0.0467888 -0.0673186 -0.642253 3 1 0
0.046827 -0.0672257 -0.642328 3 1 0
0.0468653 -0.067136 -0.642403 3 1 0
0.0469039 -0.0670501 -0.64248 3 1 0
0.0469425 -0.0669668 -0.642555 3 1 0
0.0469812 -0.0668867 -0.642629 3 1 0
0.0470201 -0.0668104 -0.642705 3 1 0
0.0470591 -0.0667367 -0.64278 3 1 0
0.0470982 -0.0666663 -0.642854 3 1 0
0.0471374 -0.0665996 -0.642928 3 1 0
0.0471768 -0.0665356 -0.643003 3 1 0
0.0472162 -0.0664748 -0.643077 3 1 0
0.0472559 -0.0664178 -0.64315 3 1 0
0.0472956 -0.0663634 -0.643224 3 1 0
0.0473354 -0.0663123 -0.643299 3 1 0
0.0473755 -0.0662649 -0.64337 3 1 0
0.0474156 -0.0662202 -0.643445 3 1 0
0.0474558 -0.0661787 -0.64352 3 1 0
0.0474961 -0.0661408 -0.643599 3 1 0
0.0475366 -0.0661057 -0.643673 3 1 0
0.0475772 -0.0660739 -0.643747 3 1 0
0.0476178 -0.0660453 -0.643822 3 1 0
0.0476587 -0.06602 -0.643896 4 1 0
0.0476997 -0.0659978 -0.643969 3 1 0
0.0477407 -0.0659788 -0.644037 3 1 0
0.047782 -0.0659632 -0.64411 3 1 0
0.0478233 -0.0659507 -0.644183 3 1 0
0.0478648 -0.0659414 -0.644247 3 1 0
0.0479064 -0.0659354 -0.64432 3 1 0
0.0479482 -0.0659326 -0.644392 3 1 0
0.0479901 -0.065933 -0.644456 3 1 0
0.0480321 -0.0659367 -0.644527 3 1 0
0.0480743 -0.0659436 -0.644599 3 1 0
0.0481166 -0.0659536 -0.644661 3 1 0
0.048159 -0.0659669 -0.644733 3 1 0
0.0482016 -0.0659835 -0.644804 3 1 0
0.0482442 -0.0660031 -0.644867 3 1 0
0.0482871 -0.0660261 -0.644948 3 1 0
0.0483301 -0.0660523 -0.645028 3 1 0
0.0483731 -0.0660816 -0.64512 3 1 0
0.0484164 -0.0661142 -0.645201 3 1 0
0.0484598 -0.06615 -0.645281 3 1 0
0.0485033 -0.0661888 -0.645372 3 1 0
0.0485469 -0.066231 -0.645452 3 1 0
0.0485908 -0.0662764 -0.645532 3 1 0
0.0486346 -0.0663248 -0.645623 3 1 0
0.0486787 -0.0663766 -0.645702 3 1 0
0.0487229 -0.0664316 -0.645782 3 1 0
0.0487672 -0.0664895 -0.645869 3 1 0
0.0488117 -0.0665509 -0.645947 4 1 0
0.0488563 -0.0666154 -0.646026 3 1 0
0.048901 -0.0666829 -0.6461 3 1 0
0.048946 -0.0667538 -0.646179 4 1 0
0.0489911 -0.0668278 -0.646259 3 1 0
0.0490362 -0.0669046 -0.64633 3 1 0
0.0490816 -0.0669849 -0.64641 4 1 0
0.0491271 -0.0670684 -0.64649 3 1 0
0.0491727 -0.0671545 -0.646568 3 1 0
0.0492185 -0.0672443 -0.646648 3 1 0
0.0492644 -0.0673371 -0.646729 3 1 0
0.0493104 -0.0674326 -0.646808 3 1 0
0.0493566 -0.0675318 -0.646889 3 1 0
0.049403 -0.0676341 -0.64697 3 1 0
0.0494495 -0.0677389 -0.64705 3 1 0
0.0494961 -0.0678474 -0.647131 3 1 0
0.049543 -0.067959 -0.647211 3 1 0
0.0495898 -0.0679141 -0.647292 3 1 0
0.0496369 -0.0676826 -0.647373 3 1 0
0.0496842 -0.0674537 -0.647454 3 1 0
0.0497315 -0.0673158 -0.647534 3 1 0
0.0497791 -0.0670905 -0.647615 3 1 0
0.0498268 -0.0668678 -0.647696 3 1 0
0.0498746 -0.0667406 -0.647777 3 1 0
0.0499226 -0.0665213 -0.647858 3 1 0
0.0499707 -0.0663046 -0.647939 3 1 0
0.0500189 -0.0661881 -0.648021 3 1 0
0.0500674 -0.0659747 -0.648102 3 1 0
0.050116 -0.0657638 -0.648183 3 1 0
0.0501647 -0.0656579 -0.648265 3 1 0
0.0502136 -0.0654501 -0.648346 3 1 0
0.0502627 -0.0652449 -0.648427 3 1 0
0.0503118 -0.0651492 -0.648509 3 1 0
0.0503612 -0.0649469 -0.648591 3 1 0
0.0504108 -0.0647472 -0.648672 3 1 0
0.0504604 -0.0646612 -0.648755 3 1 0
0.0505102 -0.0644642 -0.648836 3 1 0
0.0505602 -0.0642697 -0.648918 3 1 0
0.0506103 -0.0641922 -0.649001 3 1 0
0.0506606 -0.0640002 -0.649082 3 1 0
0.0507111 -0.0638107 -0.649164 3 1 0
0.0507616 -0.0637417 -0.649247 3 1 0
0.0508124 -0.0635546 -0.649329 3 1 0
0.0508634 -0.06337 -0.649411 3 1 0
0.0509144 -0.0633041 -0.649494 3 1 0
0.0509657 -0.0631217 -0.649576 3 1 0
0.0510171 -0.0629417 -0.649658 3 1 0
0.0510686 -0.0628991 -0.649743 3 1 0
0.0511203 -0.0627208 -0.649825 3 1 0
0.0511722 -0.0625449 -0.649907 3 1 0
0.0512243 -0.0623797 -0.649986 3 1 0
0.0512765 -0.0622084 -0.650068 3 1 0
0.0513289 -0.0620396 -0.65015 3 1 0
0.0513813 -0.0616395 -0.650213 3 1 0
0.051434 -0.0614822 -0.650294 3 1 0
0.0514868 -0.0613272 -0.650376 3 1 0
0.0515385 -0.060673 -0.650449 3 1 0
0.0515793 -0.0605735 -0.650518 4 1 0
0.0516342 -0.0604406 -0.65061 4 1 0
0.0516322 -0.0601364 -0.650639 3 1 0
0.0516857 -0.0600273 -0.650727 3 1 0
0.051739 -0.0599214 -0.650815 3 1 0
0.051791 -0.0597326 -0.650928 3 1 0
0.0518446 -0.0596432 -0.651015 4 1 0
0.0518983 -0.0595563 -0.651101 3 1 0
0.0519514 -0.0594652 -0.651193 3 1 0
0.0520055 -0.0593901 -0.651279 3 1 0
0.0520598 -0.0593174 -0.651364 3 1 0
0.0521137 -0.0592604 -0.65145 3 1 0
0.0521683 -0.0591959 -0.651536 3 1 0
0.0522231 -0.0591339 -0.651622 3 1 0
0.0522778 -0.0590863 -0.651707 3 1 0
0.0523329 -0.0590306 -0.651793 3 1 0
0.0523881 -0.0589774 -0.651878 3 1 0
0.0524434 -0.0589418 -0.651963 3 1 0
0.052499 -0.0588947 -0.652049 3 1 0
0.0525548 -0.0588501 -0.652135 3 1 0
0.0526105 -0.0588297 -0.652218 3 1 0
0.0526666 -0.0587914 -0.652303 3 1 0
0.0527229 -0.0587555 -0.652389 3 1 0
0.0527791 -0.0587521 -0.65247 3 1 0
0.0528357 -0.0587226 -0.652555 3 1 0
0.0528925 -0.0586956 -0.65264 3 1 0
0.0529492 -0.0587096 -0.652718 3 1 0
0.0530063 -0.0586891 -0.652803 3 1 0
0.0530635 -0.0586711 -0.652888 3 1 0
0.0531205 -0.058708 -0.652958 3 1 0
0.0531782 -0.0586969 -0.653043 4 1 0
0.0532361 -0.0586882 -0.653127 3 1 0
0.0532934 -0.0587507 -0.653196 3 1 0
0.0533516 -0.0587493 -0.65328 4 1 0
0.0534099 -0.0587503 -0.653364 3 1 0
0.0534676 -0.058818 -0.65344 3 1 0
0.0535264 -0.0588258 -0.653534 4 1 0
0.0535853 -0.0588361 -0.653627 3 1 0
0.0536412 -0.0588312 -0.653759 3 1 0
0.0536816 -0.0588428 -0.653818 4 1 0
0.0537417 -0.0588598 -0.653905 3 1 0
0.0538062 -0.0588387 -0.654057 3 1 0
0.0538663 -0.0588606 -0.654149 3 1 0
0.0539264 -0.058885 -0.65424 3 1 0
0.0539839 -0.0591011 -0.654313 3 1 0
0.0540449 -0.0591398 -0.654406 3 1 0
0.054105 -0.0591809 -0.654498 3 1 0
0.0541694 -0.0591775 -0.654593 3 1 0
0.0542306 -0.059221 -0.654686 3 1 0
0.0542916 -0.059267 -0.654779 3 1 0
0.0543523 -0.0592458 -0.654876 3 1 0
0.0543939 -0.0590898 -0.654939 4 1 0
0.0544612 -0.0588494 -0.655038 3 1 0
0.0545205 -0.0586403 -0.65512 3 1 0
0.0545784 -0.0584392 -0.655204 3 1 0
0.0546362 -0.0582406 -0.655288 3 1 0
0.0546945 -0.0580374 -0.655372 3 1 0
0.0547526 -0.0578433 -0.655456 3 1 0
0.0548108 -0.0576514 -0.65554 3 1 0
0.05487 -0.0574511 -0.655623 3 1 0
0.0549286 -0.0572636 -0.655707 3 1 0
0.0549872 -0.0570784 -0.655791 3 1 0
0.0550465 -0.0569049 -0.655875 3 1 0
0.0551055 -0.0567237 -0.655959 3 1 0
0.0551646 -0.0565447 -0.656042 3 1 0
0.0552241 -0.056404 -0.656124 3 1 0
0.0552835 -0.0562284 -0.656207 3 1 0
0.055343 -0.0560549 -0.65629 3 1 0
0.0554029 -0.0558903 -0.656372 3 1 0
0.0554628 -0.0557208 -0.656455 3 1 0
0.0555227 -0.0555534 -0.656538 3 1 0
0.055583 -0.0554014 -0.656619 3 1 0
0.0556433 -0.0552377 -0.656701 3 1 0
0.0557037 -0.0550761 -0.656784 3 1 0
0.0557644 -0.054922 -0.656865 3 1 0
0.0558251 -0.0547643 -0.656948 3 1 0
0.055886 -0.0546086 -0.65703 3 1 0
0.0559471 -0.0544547 -0.657114 3 1 0
0.0560083 -0.054303 -0.657196 3 1 0
0.0560696 -0.0541534 -0.657279 3 1 0
0.056131 -0.054014 -0.657355 3 1 0
0.0561927 -0.053868 -0.657437 3 1 0
0.0562544 -0.053724 -0.657519 3 1 0
0.0563163 -0.0535998 -0.657566 3 1 0
0.0563784 -0.0534589 -0.657647 3 1 0
0.0564407 -0.05332 -0.657728 3 1 0
0.0565031 -0.0531555 -0.657745 3 1 0
0.0565656 -0.0530219 -0.657835 4 1 0
0.0566283 -0.0528903 -0.657924 3 1 0
0.056691 -0.052737 -0.658091 3 1 0
0.0567352 -0.0526436 -0.658153 4 1 0
0.0568218 -0.0524766 -0.658276 3 1 0
0.0568932 -0.0524591 -0.658286 3 1 0
0.0569607 -0.0523283 -0.658373 3 1 0
0.0570283 -0.0521998 -0.658459 3 1 0
0.0570919 -0.0521504 -0.658617 3 1 0
0.05716 -0.0520186 -0.658705 4 1 0
0.0572282 -0.0518892 -0.658794 3 1 0
0.0573002 -0.051715 -0.658844 3 1 0
0.0573346 -0.05165 -0.658892 4 1 0
0.0574071 -0.0515305 -0.659 3 1 0
0.0574659 -0.051539 -0.659156 3 1 0
0.0575279 -0.0514304 -0.659243 3 1 0
0.0575894 -0.0513245 -0.659328 3 1 0
0.0576561 -0.0511868 -0.659426 3 1 0
0.0577175 -0.0510895 -0.659516 3 1 0
0.0577789 -0.0509938 -0.659606 3 1 0
0.0578339 -0.0509958 -0.659691 3 1 0
0.0578951 -0.0508927 -0.659776 3 1 0
0.0579562 -0.0507914 -0.659861 3 1 0
0.0580209 -0.050651 -0.659946 3 1 0
0.0580815 -0.0505593 -0.660035 4 1 0
0.0581422 -0.050469 -0.660124 3 1 0
0.0581986 -0.0504665 -0.660186 4 1 0
0.0582584 -0.0503699 -0.660269 4 1 0
0.0582579 -0.0503679 -0.660267 3 1 0
0.0583215 -0.0502192 -0.660356 3 1 0
0.0583817 -0.0501317 -0.660445 3 1 0
0.058442 -0.0500454 -0.660533 3 1 0
0.0584994 -0.0500549 -0.660592 3 1 0
0.058561 -0.0499566 -0.660676 3 1 0
0.0586225 -0.0498597 -0.660759 3 1 0
0.0586853 -0.0497138 -0.660861 3 1 0
0.0587474 -0.0496265 -0.660951 3 1 0
0.0588095 -0.0495404 -0.661042 3 1 0
0.0588691 -0.0496221 -0.661132 3 1 0
0.0589309 -0.0495196 -0.661216 4 1 0
0.0589928 -0.0494183 -0.6613 3 1 0
0.0590565 -0.0492068 -0.661415 3 1 0
0.0592351 -0.0489385 -0.661638 3 1 0
0.0592694 -0.0488851 -0.661678 3 1 0
0.0593016 -0.048808 -0.661589 3 1 0
0.0593361 -0.0487525 -0.661623 3 1 0
0.0593706 -0.0486974 -0.661661 3 1 0
0.0594058 -0.048638 -0.661771 3 1 0
0.0594404 -0.0485805 -0.661812 3 1 0
0.0594752 -0.0485233 -0.661853 3 1 0
0.0595093 -0.0484793 -0.661841 3 1 0
0.0595442 -0.0484186 -0.661882 3 1 0
0.0595791 -0.0483581 -0.661924 3 1 0
0.0596117 -0.0486352 -0.661996 3 1 0
0.0596468 -0.048561 -0.662031 3 1 0
0.0596819 -0.0484871 -0.662067 3 1 0
0.0597202 -0.0482105 -0.662197 3 1 0
0.0597562 -0.0481603 -0.662239 3 1 0
0.0597923 -0.0481106 -0.66228 3 1 0
0.0598263 -0.0482695 -0.662258 3 1 0
0.0598627 -0.0482268 -0.662301 3 1 0
0.0598992 -0.0481843 -0.662343 3 1 0
0.0599344 -0.0485071 -0.662401 3 1 0
0.0599711 -0.0484721 -0.662444 3 1 0
0.060008 -0.0484372 -0.662487 3 1 0
0.0600436 -0.0487803 -0.662538 3 1 0
0.0600807 -0.0487512 -0.662581 3 1 0
0.0601179 -0.0487223 -0.662623 3 1 0
0.0601544 -0.0489891 -0.662663 3 1 0
0.0601918 -0.0489641 -0.662706 3 1 0
0.0602292 -0.0489392 -0.662749 3 1 0
0.0602663 -0.0491234 -0.662788 3 1 0
0.060304 -0.0491011 -0.662831 3 1 0
0.0603417 -0.049079 -0.662874 3 1 0
0.0603791 -0.0492132 -0.662915 3 1 0
0.060417 -0.0491929 -0.662958 3 1 0
0.060455 -0.0491727 -0.663001 3 1 0
0.0604927 -0.0492854 -0.663043 3 1 0
0.0605308 -0.0492667 -0.663086 3 1 0
0.060569 -0.0492482 -0.663129 3 1 0
0.060607 -0.0493565 -0.663173 3 1 0
0.0606454 -0.0493393 -0.663216 3 1 0
0.0606838 -0.0493223 -0.663259 3 1 0
0.0607222 -0.0494163 -0.663296 3 1 0
0.0607608 -0.04936 -0.66334 3 1 0
0.0607995 -0.0492556 -0.663383 3 1 0
0.0608381 -0.0490211 -0.663423 3 1 0
0.0608769 -0.0489183 -0.663467 3 1 0
0.0609158 -0.0488158 -0.66351 3 1 0
0.0609546 -0.0485939 -0.66355 3 1 0
0.0609937 -0.048493 -0.663593 3 1 0
0.0610328 -0.0483924 -0.663637 3 1 0
0.0610719 -0.0481796 -0.663677 3 1 0
0.0611112 -0.0480805 -0.663721 3 1 0
0.0611505 -0.0479817 -0.663764 3 1 0
0.0611898 -0.0477772 -0.663804 3 1 0
0.0612293 -0.0476799 -0.663848 3 1 0
0.0612689 -0.0475829 -0.663891 3 1 0
0.0613084 -0.0473869 -0.663931 3 1 0
0.0613481 -0.0472913 -0.663975 3 1 0
0.0613879 -0.047196 -0.664019 3 1 0
0.0614277 -0.0470078 -0.664058 3 1 0
0.0614676 -0.0469139 -0.664102 3 1 0
0.0615076 -0.0468203 -0.664146 3 1 0
0.0615476 -0.0466374 -0.664184 3 1 0
0.0615877 -0.0465452 -0.664228 3 1 0
0.0616279 -0.0464532 -0.664272 3 1 0
0.061668 -0.046267 -0.664304 3 1 0
0.0617084 -0.0461766 -0.664348 3 1 0
0.0617488 -0.0460863 -0.664392 3 1 0
0.0617895 -0.0459401 -0.664443 3 1 0
0.06183 -0.045851 -0.664487 3 1 0
0.0618707 -0.0457622 -0.664531 3 1 0
0.0619113 -0.0456197 -0.664573 3 1 0
0.0619521 -0.045532 -0.664617 3 1 0
0.061993 -0.0454445 -0.664661 3 1 0
0.0620337 -0.0452877 -0.664694 3 1 0
0.0620746 -0.0452015 -0.664738 3 1 0
0.0621157 -0.0451155 -0.664783 3 1 0
0.0621572 -0.0449987 -0.664838 3 1 0
0.0621983 -0.0449135 -0.664882 3 1 0
0.0622396 -0.0448286 -0.664926 3 1 0
0.0622808 -0.0447026 -0.664966 3 1 0
0.0623221 -0.0446186 -0.66501 3 1 0
0.0623635 -0.0445349 -0.665054 3 1 0
0.062405 -0.0443968 -0.665089 3 1 0
0.0624465 -0.0443143 -0.665133 3 1 0
0.0624881 -0.044232 -0.665177 3 1 0
0.0625304 -0.0441275 -0.66523 3 1 0
0.0625722 -0.0440459 -0.665273 3 1 0
0.0626139 -0.0439645 -0.665317 3 1 0
0.0626558 -0.043857 -0.66536 3 1 0
0.0626977 -0.0437764 -0.665404 3 1 0
0.0627396 -0.043696 -0.665448 3 1 0
0.0627819 -0.043572 -0.665483 3 1 0
0.062824 -0.0434927 -0.665527 3 1 0
0.0628662 -0.0434136 -0.665571 3 1 0
0.0629097 -0.0433167 -0.665619 3 1 0
0.0629519 -0.0432382 -0.665663 3 1 0
0.0629942 -0.0431599 -0.665707 3 1 0
0.0630365 -0.0430751 -0.665754 3 1 0
0.0630789 -0.0429973 -0.665797 3 1 0
0.0631214 -0.0429197 -0.665841 3 1 0
0.0631667 -0.0427858 -0.665864 3 1 0
0.0632093 -0.0427095 -0.665909 3 1 0
0.063252 -0.0426334 -0.665953 3 1 0
0.0632941 -0.0426012 -0.666017 3 1 0
0.0633369 -0.0425244 -0.66606 3 1 0
0.0633798 -0.0424479 -0.666103 3 1 0
0.0634233 -0.0423257 -0.666134 3 1 0
0.0634662 -0.0422505 -0.666178 3 1 0
0.0635092 -0.0421754 -0.666223 3 1 0
0.0635494 -0.0421208 -0.666274 3 1 0
0.0635927 -0.0420453 -0.666317 3 1 0
0.063636 -0.04197 -0.66636 3 1 0
0.0636768 -0.0418748 -0.666406 3 1 0
0.0637204 -0.0418001 -0.666449 3 1 0
0.0637641 -0.0417255 -0.666493 3 1 0
0.0638073 -0.0416222 -0.666532 3 1 0
0.0638511 -0.0415488 -0.666575 3 1 0
0.063895 -0.0414756 -0.666618 3 1 0
0.0639391 -0.0413908 -0.666652 3 1 0
0.0639831 -0.0413183 -0.666695 3 1 0
0.0640272 -0.0412458 -0.666737 3 1 0
0.0640714 -0.0411698 -0.666779 3 1 0
0.0641156 -0.0410978 -0.666821 3 1 0
0.0641598 -0.041026 -0.666864 3 1 0
0.0642041 -0.0409512 -0.666906 3 1 0
0.0642484 -0.0408798 -0.666949 3 1 0
0.0642928 -0.0408085 -0.666991 3 1 0
0.0643372 -0.0407352 -0.667032 3 1 0
0.0643817 -0.0406644 -0.667075 3 1 0
0.0644262 -0.0405937 -0.667117 3 1 0
0.0644708 -0.0405224 -0.667158 3 1 0
0.0645153 -0.0404521 -0.6672 3 1 0
0.06456 -0.040382 -0.667242 3 1 0
0.0646047 -0.0403127 -0.667283 3 1 0
0.0646494 -0.040243 -0.667325 3 1 0
0.0646942 -0.0401733 -0.667367 3 1 0
0.064739 -0.0401061 -0.667408 3 1 0
0.0647839 -0.0400368 -0.66745 3 1 0
0.0648287 -0.0399677 -0.667492 3 1 0
0.0648737 -0.0399024 -0.667533 3 1 0
0.0649187 -0.0398336 -0.667575 3 1 0
0.0649637 -0.0397649 -0.667617 3 1 0
0.0650087 -0.0397015 -0.667658 3 1 0
0.0650538 -0.0396332 -0.6677 3 1 0
0.0650989 -0.039565 -0.667741 3 1 0
0.0651441 -0.0395034 -0.667783 3 1 0
0.0651893 -0.0394355 -0.667824 3 1 0
0.0652345 -0.0393677 -0.667866 3 1 0
0.0652798 -0.0393079 -0.667907 3 1 0
0.0653251 -0.0392404 -0.667949 3 1 0
0.0653704 -0.039173 -0.66799 3 1 0
0.0654159 -0.0391149 -0.668032 3 1 0
0.0654613 -0.0390477 -0.668073 3 1 0
0.0655067 -0.0389806 -0.668114 3 1 0
0.0655522 -0.0389241 -0.668156 3 1 0
0.0655977 -0.0388573 -0.668197 3 1 0
0.0656432 -0.0387906 -0.668238 3 1 0
0.0656888 -0.0387356 -0.66828 3 1 0
0.0657344 -0.0386691 -0.668321 3 1 0
0.06578 -0.0386026 -0.668362 3 1 0
0.0658257 -0.0385491 -0.668405 3 1 0
0.0658714 -0.0384829 -0.668445 3 1 0
0.065917 -0.0384167 -0.668486 3 1 0
0.0659628 -0.0383644 -0.668529 3 1 0
0.0660086 -0.0382985 -0.66857 3 1 0
0.0660544 -0.0382325 -0.66861 3 1 0
0.0661002 -0.0381816 -0.668653 3 1 0
0.0661461 -0.0381158 -0.668694 3 1 0
0.0661919 -0.0380501 -0.668734 3 1 0
0.0662379 -0.0380003 -0.668777 3 1 0
0.0662838 -0.0379348 -0.668818 3 1 0
0.0663297 -0.0378693 -0.668858 3 1 0
0.0663757 -0.0378206 -0.668902 3 1 0
0.0664217 -0.0377553 -0.668942 3 1 0
0.0664677 -0.0376899 -0.668982 3 1 0
0.0665138 -0.0376423 -0.669026 3 1 0
0.0665598 -0.0375771 -0.669066 3 1 0
0.0666059 -0.0375119 -0.669106 3 1 0
0.0666521 -0.0374654 -0.669151 3 1 0
0.0666982 -0.0374003 -0.669191 3 1 0
0.0667443 -0.0373353 -0.669231 3 1 0
0.0667905 -0.0372897 -0.669275 3 1 0
0.0668367 -0.0372248 -0.669315 3 1 0
0.0668829 -0.0371598 -0.669355 3 1 0
0.0669292 -0.0371153 -0.669401 3 1 0
0.0669754 -0.0370505 -0.66944 3 1 0
0.0670216 -0.0369856 -0.66948 3 1 0
0.067068 -0.0369421 -0.669526 3 1 0
0.0671143 -0.0368774 -0.669566 3 1 0
0.0671606 -0.0368125 -0.669605 3 1 0
0.067207 -0.0367702 -0.669652 3 1 0
0.0672533 -0.0367054 -0.669692 3 1 0
0.0672996 -0.0366406 -0.669731 3 1 0
0.0673461 -0.0365993 -0.669779 3 1 0
0.0673925 -0.0365346 -0.669818 3 1 0
0.0674388 -0.0364699 -0.669857 3 1 0
0.0674853 -0.0364295 -0.669905 3 1 0
0.0675318 -0.0363648 -0.669945 3 1 0
0.0675782 -0.0363 -0.669984 3 1 0
0.0676247 -0.0362604 -0.670032 3 1 0
0.0676712 -0.0361957 -0.670072 3 1 0
0.0677176 -0.036131 -0.670111 3 1 0
0.0677642 -0.0360917 -0.670159 3 1 0
0.0678107 -0.036027 -0.670198 3 1 0
0.0678572 -0.0359622 -0.670237 3 1 0
0.0679039 -0.0359309 -0.670297 3 1 0
0.0679504 -0.0358662 -0.670336 3 1 0
0.0679969 -0.0358014 -0.670375 3 1 0
0.0680432 -0.0357229 -0.670422 3 1 0
0.0680898 -0.0356579 -0.670468 3 1 0
0.0681364 -0.0355929 -0.670514 3 1 0
0.0681828 -0.0354927 -0.670585 3 1 0
0.0682294 -0.0354273 -0.670631 3 1 0
0.068276 -0.0353619 -0.670676 3 1 0
0.0683226 -0.035293 -0.670726 3 1 0
0.0683692 -0.0352274 -0.670771 3 1 0
0.0684158 -0.0351618 -0.670816 3 1 0
0.0684625 -0.0351047 -0.67086 3 1 0
0.0685092 -0.0350389 -0.670905 3 1 0
0.0685558 -0.0349731 -0.67095 3 1 0
0.0686025 -0.0349199 -0.670993 3 1 0
0.0686492 -0.034854 -0.671038 3 1 0
0.0686958 -0.034788 -0.671083 3 1 0
0.0687426 -0.0347358 -0.671125 3 1 0
0.0687892 -0.0346697 -0.67117 3 1 0
0.0688359 -0.0346036 -0.671215 3 1 0
0.0688827 -0.0345515 -0.671257 3 1 0
0.0689294 -0.0344852 -0.671301 3 1 0
0.0689761 -0.0344189 -0.671346 3 1 0
0.0690228 -0.0343668 -0.671387 3 1 0
0.0690695 -0.0343004 -0.671431 3 1 0
0.0691162 -0.0342339 -0.671476 3 1 0
0.069163 -0.0341816 -0.671517 3 1 0
0.0692097 -0.034115 -0.671561 3 1 0
0.0692564 -0.0340484 -0.671605 3 1 0
0.0693032 -0.0339959 -0.671646 3 1 0
0.0693499 -0.0339291 -0.67169 3 1 0
0.0693966 -0.0338622 -0.671734 3 1 0
0.0694434 -0.0338094 -0.671774 3 1 0
0.0694901 -0.0337424 -0.671818 3 1 0
0.0695369 -0.0336753 -0.671862 3 1 0
0.0695836 -0.0336221 -0.671902 3 1 0
0.0696304 -0.0335549 -0.671945 3 1 0
0.0696771 -0.0334876 -0.671989 3 1 0
0.0697239 -0.0334335 -0.672029 3 1 0
0.0697706 -0.0333661 -0.672072 3 1 0
0.0698173 -0.0332987 -0.672116 3 1 0
0.0698641 -0.0332451 -0.672155 3 1 0
0.0699108 -0.0331775 -0.672198 3 1 0
0.0699575 -0.0331098 -0.672241 3 1 0
0.0700043 -0.0330487 -0.672286 3 1 0
0.070051 -0.0329808 -0.672329 3 1 0
0.0700977 -0.0329129 -0.672372 3 1 0
0.0701444 -0.0328351 -0.672422 3 1 0
0.0701911 -0.032767 -0.672465 3 1 0
0.0702378 -0.0326988 -0.672508 3 1 0
0.0702843 -0.0325907 -0.672565 3 1 0
0.070331 -0.0325222 -0.672607 3 1 0
0.0703778 -0.0324537 -0.672649 3 1 0
0.0704243 -0.0323376 -0.672702 3 1 0
0.070471 -0.0322688 -0.672744 3 1 0
0.0705177 -0.0321999 -0.672786 3 1 0
0.0705643 -0.0320966 -0.672832 3 1 0
0.070611 -0.0320274 -0.672873 3 1 0
0.0706577 -0.0319582 -0.672915 3 1 0
0.0707043 -0.0318686 -0.672957 3 1 0
0.070751 -0.0317992 -0.672998 3 1 0
0.0707977 -0.0317297 -0.673039 3 1 0
0.0708443 -0.0316481 -0.67308 3 1 0
0.070891 -0.0315784 -0.673121 3 1 0
0.0709377 -0.0315087 -0.673162 3 1 0
0.0709843 -0.0314307 -0.673202 3 1 0
0.071031 -0.0313608 -0.673243 3 1 0
0.0710776 -0.0312908 -0.673283 3 1 0
0.0711242 -0.0312141 -0.673323 3 1 0
0.0711709 -0.0311439 -0.673363 3 1 0
0.0712175 -0.0310737 -0.673403 3 1 0
0.0712641 -0.0309972 -0.673443 3 1 0
0.0713108 -0.0309268 -0.673483 3 1 0
0.0713574 -0.0308563 -0.673523 3 1 0
0.071404 -0.0307795 -0.673562 3 1 0
0.0714506 -0.0307089 -0.673602 3 1 0
0.0714972 -0.0306382 -0.673642 3 1 0
0.0715437 -0.0305608 -0.673681 3 1 0
0.0715903 -0.03049 -0.673721 3 1 0
0.0716369 -0.030419 -0.67376 3 1 0
0.0716834 -0.0303411 -0.673799 3 1 0
0.07173 -0.03027 -0.673838 3 1 0
0.0717765 -0.0301988 -0.673878 3 1 0
0.0718231 -0.0301202 -0.673917 3 1 0
0.0718696 -0.0300489 -0.673956 3 1 0
0.0719161 -0.0299775 -0.673995 3 1 0
0.0719626 -0.0298981 -0.674034 3 1 0
0.0720091 -0.0298266 -0.674072 3 1 0
0.0720556 -0.029755 -0.674111 3 1 0
0.0721021 -0.029675 -0.67415 3 1 0
0.0721485 -0.0296033 -0.674188 3 1 0
0.072195 -0.0295315 -0.674227 3 1 0
0.0722415 -0.0294508 -0.674266 3 1 0
0.0722879 -0.0293788 -0.674304 3 1 0
0.0723343 -0.0293068 -0.674342 3 1 0
0.0723808 -0.0292255 -0.674381 3 1 0
0.0724272 -0.0291533 -0.674419 3 1 0
0.0724736 -0.0290812 -0.674457 3 1 0
0.07252 -0.0289992 -0.674495 3 1 0
0.0725663 -0.0289268 -0.674533 3 1 0
0.0726127 -0.0288545 -0.674571 3 1 0
0.0726591 -0.0287719 -0.67461 3 1 0
0.0727054 -0.0286994 -0.674647 3 1 0
0.0727518 -0.0286268 -0.674685 3 1 0
0.0727981 -0.0285436 -0.674723 3 1 0
0.0728444 -0.0284709 -0.674761 3 1 0
0.0728907 -0.0283982 -0.674798 3 1 0
0.072937 -0.0283145 -0.674836 3 1 0
0.0729833 -0.0282416 -0.674874 3 1 0
0.0730296 -0.0281687 -0.674911 3 1 0
0.0730758 -0.0280846 -0.674949 3 1 0
0.0731221 -0.0280115 -0.674986 3 1 0
0.0731683 -0.0279384 -0.675023 3 1 0
0.0732145 -0.0278538 -0.675062 3 1 0
0.0732608 -0.0277807 -0.675098 3 1 0
0.073307 -0.0277074 -0.675135 3 1 0
0.0733531 -0.0276224 -0.675174 3 1 0
0.0733993 -0.0275491 -0.67521 3 1 0
0.0734455 -0.0274757 -0.675247 3 1 0
0.0734916 -0.0273904 -0.675285 3 1 0
0.0735378 -0.0273169 -0.675322 3 1 0
0.0735839 -0.0272434 -0.675358 3 1 0
0.07363 -0.0271578 -0.675397 3 1 0
0.0736761 -0.0270842 -0.675433 3 1 0
0.0737222 -0.0270105 -0.675469 3 1 0
0.0737683 -0.0269248 -0.675508 3 1 0
0.0738144 -0.0268511 -0.675544 3 1 0
0.0738604 -0.0267773 -0.67558 3 1 0
0.0739065 -0.0266915 -0.675619 3 1 0
0.0739525 -0.0266177 -0.675655 3 1 0
0.0739985 -0.0265437 -0.67569 3 1 0
0.0740445 -0.0264581 -0.675729 3 1 0
0.0740905 -0.0263841 -0.675765 3 1 0
0.0741365 -0.0263101 -0.675801 3 1 0
0.0741825 -0.0262247 -0.67584 3 1 0
0.0742284 -0.0261506 -0.675876 3 1 0
0.0742744 -0.0260764 -0.675911 3 1 0
0.0743203 -0.0259916 -0.675951 3 1 0
0.0743662 -0.0259174 -0.675987 3 1 0
0.0744121 -0.0258431 -0.676022 3 1 0
0.074458 -0.0257591 -0.676063 3 1 0
0.0745039 -0.0256848 -0.676098 3 1 0
0.0745497 -0.0256104 -0.676133 3 1 0
0.0745956 -0.0255276 -0.676174 3 1 0
0.0746414 -0.0254532 -0.67621 3 1 0
0.0746873 -0.0253787 -0.676245 3 1 0
0.0747331 -0.0252973 -0.676287 3 1 0
0.0747789 -0.0252228 -0.676322 3 1 0
0.0748247 -0.0251483 -0.676357 3 1 0
0.0748704 -0.0250794 -0.676407 3 1 0
0.0749161 -0.0250049 -0.676442 3 1 0
0.0749619 -0.0249302 -0.676478 3 1 0
0.0750079 -0.0248213 -0.6765 3 1 0
0.0750536 -0.0247467 -0.676535 3 1 0
0.0750993 -0.0246721 -0.676569 3 1 0
0.0751448 -0.0245367 -0.676576 3 1 0
0.0751905 -0.0244621 -0.67661 3 1 0
0.0752362 -0.0243876 -0.676644 3 1 0
0.0752817 -0.0242738 -0.676667 3 1 0
0.0753274 -0.0241992 -0.676701 3 1 0
0.075373 -0.0241247 -0.676734 3 1 0
0.0754186 -0.0240298 -0.676767 3 1 0
0.0754642 -0.0239553 -0.676801 3 1 0
0.0755098 -0.0238807 -0.676834 3 1 0
0.0755554 -0.023788 -0.676868 3 1 0
0.0756009 -0.0237134 -0.676902 3 1 0
0.0756465 -0.0236389 -0.676935 3 1 0
0.075692 -0.0235461 -0.676969 3 1 0
0.0757375 -0.0234715 -0.677002 3 1 0
0.0757831 -0.0233969 -0.677035 3 1 0
0.0758285 -0.0233044 -0.67707 3 1 0
0.075874 -0.0232299 -0.677103 3 1 0
0.0759195 -0.0231553 -0.677136 3 1 0
0.0759649 -0.0230633 -0.67717 3 1 0
0.0760104 -0.0229888 -0.677203 3 1 0
0.0760558 -0.0229142 -0.677236 3 1 0
0.0761012 -0.0228226 -0.677271 3 1 0
0.0761466 -0.0227481 -0.677303 3 1 0
0.076192 -0.0226736 -0.677336 3 1 0
0.0762374 -0.0225824 -0.677371 3 1 0
0.0762827 -0.022508 -0.677403 3 1 0
0.0763281 -0.0224335 -0.677435 3 1 0
0.0763734 -0.0223427 -0.67747 3 1 0
0.0764187 -0.0222684 -0.677503 3 1 0
0.076464 -0.022194 -0.677535 3 1 0
0.0765093 -0.0221037 -0.67757 3 1 0
0.0765546 -0.0220293 -0.677602 3 1 0
0.0765999 -0.021955 -0.677634 3 1 0
0.0766451 -0.0218652 -0.677669 3 1 0
0.0766904 -0.021791 -0.677701 3 1 0
0.0767356 -0.0217167 -0.677733 3 1 0
0.0767808 -0.0216274 -0.677769 3 1 0
0.076826 -0.0215532 -0.6778 3 1 0
0.0768712 -0.021479 -0.677832 3 1 0
0.0769164 -0.0213904 -0.677867 3 1 0
0.0769616 -0.0213162 -0.677899 3 1 0
0.0770067 -0.0212421 -0.67793 3 1 0
0.0770519 -0.021154 -0.677966 3 1 0
0.077097 -0.02108 -0.678004 3 1 0
0.0771421 -0.021006 -0.678043 3 1 0
0.0771872 -0.0209185 -0.678077 3 1 0
0.0772323 -0.0208446 -0.678116 3 1 0
0.0772774 -0.0207706 -0.678154 3 1 0
0.0773224 -0.0206838 -0.678188 3 1 0
0.0773675 -0.02061 -0.678227 3 1 0
0.0774126 -0.0205362 -0.678265 3 1 0
0.0774576 -0.02045 -0.678299 3 1 0
0.0775026 -0.0203763 -0.678337 3 1 0
0.0775476 -0.0203026 -0.678376 3 1 0
0.0775926 -0.0202171 -0.678409 3 1 0
0.0776376 -0.0201435 -0.678447 3 1 0
0.0776826 -0.0200699 -0.678485 3 1 0
0.0777275 -0.0199851 -0.678518 3 1 0
0.0777725 -0.0199117 -0.678556 3 1 0
0.0778174 -0.0198382 -0.678595 3 1 0
0.0778623 -0.0197542 -0.678627 3 1 0
0.0779072 -0.0196809 -0.678665 3 1 0
0.0779521 -0.0196075 -0.678703 3 1 0
0.077997 -0.0195243 -0.678735 3 1 0
0.0780419 -0.0194511 -0.678773 3 1 0
0.0780868 -0.0193779 -0.678811 3 1 0
0.0781316 -0.0192954 -0.678842 3 1 0
0.0781765 -0.0192224 -0.67888 3 1 0
0.0782213 -0.0191493 -0.678918 3 1 0
0.0782661 -0.0190677 -0.678949 3 1 0
0.0783109 -0.0189948 -0.678986 3 1 0
0.0783558 -0.0189219 -0.679024 3 1 0
0.0784005 -0.0188411 -0.679054 3 1 0
0.0784453 -0.0187683 -0.679092 3 1 0
0.0784901 -0.0186956 -0.67913 3 1 0
0.0785349 -0.0186157 -0.679159 3 1 0
0.0785796 -0.0185431 -0.679197 3 1 0
0.0786244 -0.0184705 -0.679234 3 1 0
0.0786691 -0.0183916 -0.679263 3 1 0
0.0787138 -0.0183191 -0.6793 3 1 0
0.0787585 -0.0182467 -0.679338 3 1 0
0.0788032 -0.0181691 -0.679364 3 1 0
0.0788479 -0.0180968 -0.679401 3 1 0
0.0788926 -0.0180245 -0.679438 3 1 0
0.0789374 -0.0179504 -0.679453 3 1 0
0.078982 -0.0178782 -0.67949 3 1 0
0.0790267 -0.017806 -0.679528 3 1 0
0.0790712 -0.0177219 -0.679592 3 1 0
0.0791158 -0.0176499 -0.679629 3 1 0
0.0791604 -0.017578 -0.679666 3 1 0
0.079205 -0.0175006 -0.67969 3 1 0
0.0792496 -0.0174289 -0.679727 3 1 0
0.0792942 -0.0173572 -0.679764 3 1 0
0.0793389 -0.0172824 -0.679791 3 1 0
0.0793834 -0.0172108 -0.679828 3 1 0
0.079428 -0.0171393 -0.679865 3 1 0
0.0794726 -0.0170646 -0.679895 3 1 0
0.0795171 -0.0169932 -0.679931 3 1 0
0.0795617 -0.0169219 -0.679968 3 1 0
0.0796062 -0.0168469 -0.680005 3 1 0
0.0796507 -0.0167757 -0.680042 3 1 0
0.0796952 -0.0167046 -0.680079 3 1 0
0.0797398 -0.016632 -0.680099 3 1 0
0.0797843 -0.016561 -0.680135 3 1 0
0.0798288 -0.01649 -0.680172 3 1 0
0.0798731 -0.0164154 -0.680238 3 1 0
0.0799176 -0.0163447 -0.680274 3 1 0
0.079962 -0.0162741 -0.68031 3 1 0
0.0800063 -0.0162025 -0.680365 3 1 0
0.0800507 -0.0161322 -0.6804 3 1 0
0.0800952 -0.016062 -0.680436 3 1 0
0.0801395 -0.0159941 -0.680483 3 1 0
0.0801839 -0.0159243 -0.680518 3 1 0
0.0802283 -0.0158545 -0.680553 3 1 0
0.0802726 -0.0157907 -0.680604 3 1 0
0.080317 -0.0157213 -0.680638 3 1 0
0.0803614 -0.0156519 -0.680673 3 1 0
0.0804056 -0.0155938 -0.680721 3 1 0
0.08045 -0.0155248 -0.680755 3 1 0
0.0804943 -0.0154559 -0.68079 3 1 0
0.0805386 -0.0154009 -0.68083 3 1 0
0.0805829 -0.0153324 -0.680864 3 1 0
0.0806273 -0.015264 -0.680898 3 1 0
0.0806715 -0.0152088 -0.680934 3 1 0
0.0807159 -0.0151407 -0.680967 3 1 0
0.0807602 -0.0150727 -0.681 3 1 0
0.0808045 -0.0150166 -0.681034 3 1 0
0.0808488 -0.0149488 -0.681067 3 1 0
0.0808931 -0.0148811 -0.6811 3 1 0
0.0809374 -0.0148242 -0.681132 3 1 0
0.0809817 -0.0147568 -0.681165 3 1 0
0.081026 -0.0146893 -0.681198 3 1 0
0.0810703 -0.0146313 -0.68123 3 1 0
0.0811146 -0.0145641 -0.681262 3 1 0
0.0811588 -0.0144969 -0.681295 3 1 0
0.0812032 -0.0144356 -0.681327 3 1 0
0.0812474 -0.0143686 -0.68136 3 1 0
0.0812917 -0.0143016 -0.681392 3 1 0
0.081336 -0.0142357 -0.681425 3 1 0
0.0813803 -0.0141688 -0.681458 3 1 0
0.0814245 -0.014102 -0.68149 3 1 0
0.0814687 -0.0140587 -0.681518 3 1 0
0.0815129 -0.0139922 -0.68155 3 1 0
0.0815572 -0.0139257 -0.681582 3 1 0
0.0816012 -0.0139116 -0.681602 3 1 0
0.0816454 -0.0138457 -0.681633 3 1 0
0.0816896 -0.0137799 -0.681664 3 1 0
0.0817338 -0.0137493 -0.681688 3 1 0
0.081778 -0.0136839 -0.681719 3 1 0
0.0818222 -0.0136185 -0.68175 3 1 0
0.0818664 -0.0135767 -0.681774 3 1 0
0.0819106 -0.0135116 -0.681805 3 1 0
0.0819549 -0.0134466 -0.681836 3 1 0
0.0819991 -0.0134009 -0.681856 3 1 0
0.0820433 -0.0133361 -0.681887 3 1 0
0.0820875 -0.0132713 -0.681917 3 1 0
0.0821317 -0.0132246 -0.681928 3 1 0
0.0821759 -0.0131601 -0.681958 3 1 0
0.0822201 -0.0130956 -0.681987 3 1 0
0.0822642 -0.0130654 -0.682003 3 1 0
0.0823084 -0.0130012 -0.682032 3 1 0
0.0823526 -0.0129371 -0.682062 3 1 0
0.0823967 -0.0129355 -0.682108 3 1 0
0.0824408 -0.0128719 -0.682137 3 1 0
0.082485 -0.0128083 -0.682167 3 1 0
0.0825292 -0.0127982 -0.682224 3 1 0
0.0825733 -0.012735 -0.682254 3 1 0
0.0826175 -0.012672 -0.682284 3 1 0
0.0826617 -0.0126299 -0.682325 3 1 0
0.0827059 -0.012567 -0.682355 3 1 0
0.0827501 -0.0125042 -0.682385 3 1 0
0.0827943 -0.0124583 -0.682408 3 1 0
0.0828385 -0.0123956 -0.682437 3 1 0
0.0828826 -0.012333 -0.682467 3 1 0
0.0829268 -0.0123123 -0.682486 3 1 0
0.082971 -0.01225 -0.682515 3 1 0
0.0830151 -0.0121877 -0.682544 3 1 0
0.0830593 -0.0121904 -0.682579 3 1 0
0.0831034 -0.0121286 -0.682608 3 1 0
0.0831476 -0.0120668 -0.682638 3 1 0
0.0831918 -0.012064 -0.682681 3 1 0
0.083236 -0.0120026 -0.682711 3 1 0
0.0832801 -0.0119412 -0.68274 3 1 0
0.0833243 -0.0119202 -0.682777 3 1 0
0.0833685 -0.0118591 -0.682807 3 1 0
0.0834127 -0.0117981 -0.682836 3 1 0
0.0834569 -0.0117758 -0.682863 3 1 0
0.0835011 -0.011715 -0.682892 3 1 0
0.0835452 -0.0116543 -0.682922 3 1 0
0.0835895 -0.0116452 -0.682946 3 1 0
0.0836336 -0.0115848 -0.682975 3 1 0
0.0836778 -0.0115244 -0.683003 3 1 0
0.083722 -0.0115279 -0.683032 3 1 0
0.0837662 -0.0114678 -0.683061 3 1 0
0.0838104 -0.0114078 -0.683089 3 1 0
0.0838547 -0.0114125 -0.683122 3 1 0
0.0838988 -0.0113529 -0.68315 3 1 0
0.083943 -0.0112933 -0.683179 3 1 0
0.0839873 -0.0112925 -0.68321 3 1 0
0.0840315 -0.0112332 -0.683238 3 1 0
0.0840757 -0.011174 -0.683267 3 1 0
0.08412 -0.0111721 -0.683292 3 1 0
0.0841642 -0.0111132 -0.683321 3 1 0
0.0842084 -0.0110542 -0.683349 3 1 0
0.0842527 -0.0110563 -0.683369 3 1 0
0.0842969 -0.0109977 -0.683397 3 1 0
0.0843412 -0.010939 -0.683426 3 1 0
0.0843855 -0.0109429 -0.683439 3 1 0
0.0844297 -0.0108846 -0.683467 3 1 0
0.0844739 -0.0108263 -0.683499 3 1 0
0.0845182 -0.0107994 -0.683581 3 1 0
0.0845625 -0.0107413 -0.683617 3 1 0
0.0846068 -0.0106833 -0.683652 3 1 0
0.0846511 -0.0107427 -0.683699 3 1 0
0.0846954 -0.0106851 -0.683734 3 1 0
0.0847396 -0.0106275 -0.68377 3 1 0
0.0847841 -0.0107706 -0.683744 3 1 0
0.0848283 -0.0107138 -0.68378 3 1 0
0.0848726 -0.010657 -0.683816 3 1 0
0.0849169 -0.0106421 -0.683837 3 1 0
0.0849612 -0.0105855 -0.683865 3 1 0
0.0850055 -0.0105288 -0.683893 3 1 0
0.0850499 -0.0104324 -0.683917 3 1 0
0.0850942 -0.0103757 -0.683947 3 1 0
0.0851385 -0.010319 -0.683984 3 1 0
0.0851831 -0.0103957 -0.684017 3 1 0
0.0852274 -0.0103395 -0.684053 3 1 0
0.0852717 -0.0102834 -0.684089 3 1 0
0.0853162 -0.0103673 -0.68411 3 1 0
0.0853605 -0.0103116 -0.684139 3 1 0
0.0854049 -0.0102559 -0.684175 3 1 0
0.0854492 -0.010181 -0.68424 3 1 0
0.0854936 -0.0101252 -0.684276 3 1 0
0.085538 -0.0100695 -0.684312 3 1 0
0.0855828 -0.0102628 -0.684317 3 1 0
0.0856272 -0.0102079 -0.684354 3 1 0
0.0856716 -0.010153 -0.68439 3 1 0
0.0857162 -0.0103422 -0.684419 3 1 0
0.0857607 -0.0102879 -0.684447 3 1 0
0.0858051 -0.0102336 -0.684475 3 1 0
0.0858497 -0.0103409 -0.684501 3 1 0
0.0858942 -0.010287 -0.684537 3 1 0
0.0859386 -0.0102152 -0.684573 3 1 0
0.0859835 -0.00995778 -0.684593 3 1 0
0.086028 -0.00986753 -0.684621 3 1 0
0.0860725 -0.00977731 -0.684655 3 1 0
0.0861174 -0.00951247 -0.684684 3 1 0
0.086162 -0.00942287 -0.684721 3 1 0
0.0862065 -0.00933329 -0.684758 3 1 0
0.0862517 -0.00903051 -0.684798 3 1 0
0.0862963 -0.00894169 -0.684826 3 1 0
0.0863409 -0.0088529 -0.684855 3 1 0
0.0863864 -0.00852349 -0.684923 3 1 0
0.0864311 -0.00843559 -0.684952 3 1 0
0.0864757 -0.00834773 -0.68498 3 1 0
0.086522 -0.00796053 -0.685071 3 1 0
0.0865667 -0.00787381 -0.685101 3 1 0
0.0866114 -0.00778713 -0.68513 3 1 0
0.0866601 -0.00729038 -0.685258 3 1 0
0.0867049 -0.00720539 -0.685289 3 1 0
0.0867496 -0.00712045 -0.68532 3 1 0
0.0868 -0.0057937 -0.685367 3 1 0
0.086845 -0.00571513 -0.685398 3 1 0
0.0868901 -0.00563665 -0.68543 3 1 0
0.0869251 -0.0071679 -0.685261 3 1 0
0.0869704 -0.00708028 -0.685293 3 1 0
0.0870157 -0.00699291 -0.685331 3 1 0
0.0870627 -0.00656033 -0.68543 3 1 0
0.0871084 -0.00647413 -0.68546 3 1 0
0.087154 -0.00638807 -0.68549 3 1 0
0.0872113 -0.00508801 -0.685681 3 1 0
0.087257 -0.00500863 -0.685713 3 1 0
0.0873026 -0.00492947 -0.685745 3 1 0
0.0873347 -0.0065633 -0.685609 3 1 0
0.0873812 -0.00647361 -0.685648 3 1 0
0.0874276 -0.00638422 -0.685686 3 1 0
0.0874762 -0.00574856 -0.685705 3 1 0
0.0875229 -0.00566131 -0.685736 3 1 0
0.0875696 -0.00557416 -0.685767 3 1 0
0.0876284 -0.00436469 -0.685971 3 1 0
0.0876751 -0.00428397 -0.686004 3 1 0
0.0877218 -0.00420348 -0.686037 3 1 0
0.0877548 -0.0058191 -0.68596 3 1 0
0.0878024 -0.00572804 -0.686 3 1 0
0.0878498 -0.00563731 -0.68604 3 1 0
0.0879 -0.00477649 -0.68602 3 1 0
0.0879478 -0.00468886 -0.686061 3 1 0
0.0879956 -0.00460137 -0.686102 3 1 0
0.0880473 -0.0043296 -0.686147 3 1 0
0.0880951 -0.00424304 -0.68618 3 1 0
0.0881428 -0.00415657 -0.686212 3 1 0
0.0881863 -0.00449934 -0.686248 3 1 0
0.088234 -0.00441077 -0.686281 3 1 0
0.0882818 -0.00432229 -0.686313 3 1 0
0.088338 -0.00358603 -0.686456 3 1 0
0.0883859 -0.00350076 -0.68649 3 1 0
0.0884337 -0.00341563 -0.686523 3 1 0
0.088472 -0.00428939 -0.686485 3 1 0
0.0885201 -0.00419891 -0.686527 3 1 0
0.0885682 -0.00410862 -0.686568 3 1 0
0.0886293 -0.00242679 -0.686682 3 1 0
0.0886776 -0.0023488 -0.686716 3 1 0
0.0887259 -0.00227111 -0.686751 3 1 0
0.0887618 -0.00427862 -0.686847 3 1 0
0.0888096 -0.00418634 -0.686886 3 1 0
0.0888572 -0.00409456 -0.686924 3 1 0
0.0889072 -0.00278923 -0.686929 3 1 0
0.0889577 -0.00269916 -0.686972 4 1 0
0.0890079 -0.0026096 -0.687015 3 1 0
0.0890584 -0.00297742 -0.687061 3 1 0
0.0891086 -0.00288553 -0.687103 3 1 0
0.0891588 -0.00279378 -0.687145 3 1 0
0.0892175 -0.00239168 -0.687038 3 1 0
0.0892679 -0.00230116 -0.687074 3 1 0
0.0893182 -0.00221091 -0.68711 3 1 0
0.0893579 -0.00270866 -0.687185 3 1 0
0.0894084 -0.00261522 -0.687229 3 1 0
0.0894589 -0.00252206 -0.687274 3 1 0
0.0895151 -0.00151102 -0.687356 3 1 0
0.0895658 -0.00142235 -0.687401 3 1 0
0.0896164 -0.00133382 -0.687445 3 1 0
0.089662 -0.00217909 -0.687583 3 1 0
0.0897124 -0.00208584 -0.687626 3 1 0
0.0897628 -0.00199281 -0.687668 3 1 0
0.0898185 -0.000978995 -0.687645 3 1 0
0.0898693 -0.000890407 -0.687689 3 1 0
0.08992 -0.000802039 -0.687733 3 1 0
0.0899654 -0.00169004 -0.687847 3 1 0
0.0900158 -0.00159683 -0.687888 3 1 0
0.0900661 -0.00150384 -0.68793 3 1 0
0.0901213 -0.000478252 -0.687921 3 1 0
0.0901721 -0.00038968 -0.687965 3 1 0
0.0902227 -0.000301343 -0.688008 3 1 0
0.090269 -0.00114174 -0.688099 3 1 0
0.0903192 -0.00104892 -0.68814 3 1 0
0.0903694 -0.000956362 -0.68818 3 1 0
0.0904232 -4.56833e-05 -0.688185 3 1 0
0.0904746 4.43322e-05 -0.68823 3 1 0
0.0905259 0.000134048 -0.688273 3 1 0
0.0905742 -0.000562379 -0.688347 3 1 0
0.090625 -0.000469072 -0.688388 3 1 0
0.0906757 -0.00037607 -0.68843 3 1 0
0.0907324 0.000363279 -0.688458 4 1 0
0.0907872 0.000458885 -0.688507 4 1 0
0.0908211 0.000492683 -0.688563 3 1 0
0.0907341 -0.000234186 -0.688457 3 1 0
0.0907145 -0.000292691 -0.688436 3 1 0
0.0906925 -0.000308197 -0.688378 3 1 0
0.090677 0.000180716 -0.688316 3 1 0
0.0906517 0.000145063 -0.688269 4 1 0
0.0906266 0.000109544 -0.688223 3 1 0
0.0905999 -0.000435972 -0.688198 3 1 0
0.0905751 -0.000469334 -0.688151 3 1 0
0.0905504 -0.000502739 -0.688104 3 1 0
0.0905263 -5.55546e-05 -0.688033 4 1 0
0.0904994 -9.43279e-05 -0.687985 3 1 0
0.0904724 -0.00013307 -0.687936 3 1 0
0.0904434 -0.000668671 -0.68791 3 1 0
0.0904169 -0.000705218 -0.687862 3 1 0
0.0903905 -0.000741793 -0.687813 3 1 0
0.0903662 -0.00027753 -0.687744 4 1 0
0.0903378 -0.000319025 -0.687694 3 1 0
0.0903094 -0.00036048 -0.687644 3 1 0
0.0902783 -0.000916138 -0.687612 3 1 0
0.0902505 -0.000955341 -0.687562 3 1 0
0.0902226 -0.000994565 -0.687512 3 1 0
0.0901835 -0.000533354 -0.687432 4 1 0
0.0901412 -0.000600249 -0.687369 3 1 0
0.090099 -0.00066703 -0.687307 3 1 0
0.0900533 -0.00127128 -0.687258 3 1 0
0.0900117 -0.00133629 -0.687196 3 1 0
0.0899702 -0.00140126 -0.687134 3 1 0
0.0899324 -0.000896269 -0.687056 3 1 0
0.0899078 -0.000942647 -0.68701 3 1 0
0.0898776 -0.000984477 -0.686953 3 1 0
0.0899407 -0.00146595 -0.687018 3 1 0
0.0898422 -0.00164578 -0.686914 3 1 0
0.0897733 -0.00177264 -0.686839 3 1 0
0.0897087 -0.00121952 -0.686754 3 1 0
0.0896401 -0.00134269 -0.686681 3 1 0
0.0895719 -0.00146531 -0.686609 3 1 0
0.0894988 -0.0022254 -0.686558 3 1 0
0.0894549 -0.00231312 -0.686506 4 1 0
0.0894074 -0.00242262 -0.686478 3 1 0
0.0893752 -0.00173455 -0.68642 3 1 0
0.0893362 -0.00181617 -0.686394 3 1 0
0.0892972 -0.00189779 -0.686368 3 1 0
0.0892523 -0.00274219 -0.686382 3 1 0
0.0892132 -0.00283331 -0.686358 3 1 0
0.089174 -0.00292451 -0.686333 3 1 0
0.0891422 -0.00199937 -0.68625 3 1 0
0.089189 -0.00195278 -0.686335 3 1 0
0.0892421 -0.00187645 -0.686407 3 1 0
0.0892875 -0.00286005 -0.686534 3 1 0
0.0893394 -0.00279121 -0.686605 3 1 0
0.0893912 -0.00272261 -0.686676 3 1 0
0.0894513 -0.00130817 -0.686686 3 1 0
0.0895024 -0.00123313 -0.686757 3 1 0
0.0895533 -0.00115846 -0.686827 3 1 0
0.0895958 -0.00258297 -0.686959 3 1 0
0.0896327 -0.00254596 -0.687018 3 1 0
0.089668 -0.00251098 -0.687075 3 1 0
0.0897109 -0.000882822 -0.687076 3 1 0
0.0897464 -0.000834844 -0.687133 3 1 0
0.0897818 -0.00078723 -0.68719 3 1 0
0.0898096 -0.00235209 -0.687302 3 1 0
0.089845 -0.00231713 -0.687359 3 1 0
0.0898804 -0.00228241 -0.687416 3 1 0
0.0899209 -0.000765149 -0.687433 3 1 0
0.0899579 -0.000717263 -0.687492 3 1 0
0.0899947 -0.000669746 -0.68755 3 1 0
0.0900257 -0.00196788 -0.687647 3 1 0
0.0900626 -0.00192978 -0.687705 3 1 0
0.0900993 -0.00189187 -0.687763 3 1 0
0.0901441 -0.000241395 -0.687713 3 1 0
0.0901784 -0.000196045 -0.687769 4 1 0
0.0902125 -0.000151059 -0.687825 3 1 0
0.0902382 -0.00190121 -0.687976 3 1 0
0.0902725 -0.00186908 -0.688032 3 1 0
0.0903068 -0.00183716 -0.688087 3 1 0
0.0903436 -0.0005728 -0.688115 3 1 0
0.0903493 -0.000578911 -0.688121 3 1 0
0.0903633 -0.00058026 -0.688161 3 1 0
0.0903741 -0.00122479 -0.688214 3 1 0
0.0903858 -0.00123233 -0.688247 3 1 0
0.0903974 -0.00124 -0.68828 3 1 0
0.0904159 -0.000329975 -0.688241 3 1 0
0.090428 -0.000329455 -0.688274 3 1 0
0.0904402 -0.000329105 -0.688307 3 1 0
0.0904433 -0.00152902 -0.688375 3 1 0
0.0904561 -0.001537 -0.688409 3 1 0
0.090469 -0.0015451 -0.688443 3 1 0
0.0904854 -0.000415483 -0.688492 3 1 0
0.0904987 -0.000414599 -0.688526 3 1 0
0.0905121 -0.000413878 -0.688561 3 1 0
0.0905233 -0.00116817 -0.688602 3 1 0
0.0905368 -0.00117326 -0.688637 3 1 0
0.0905502 -0.00117849 -0.688671 3 1 0
0.0905755 0.000426484 -0.688545 3 1 0
0.0905895 0.000437422 -0.68858 3 1 0
0.0906035 0.000448155 -0.688614 3 1 0
0.0906032 -0.00203045 -0.688792 3 1 0
0.090619 -0.00203678 -0.688829 3 1 0
0.0906347 -0.00204322 -0.688866 3 1 0
0.0906409 -0.00162358 -0.688954 4 1 0
0.09065 -0.00164044 -0.688985 3 1 0
0.0906592 -0.00165739 -0.689015 3 1 0
0.090671 -0.00113098 -0.68902 3 1 0
0.0906802 -0.00114477 -0.68905 3 1 0
