0.0469205 -0.0750444 -0.659416 3 2 0
0.0468835 -0.0750418 -0.659406 3 2 0
0.0468193 -0.0750278 -0.65961 3 2 0
0.0467545 -0.0750957 -0.659604 3 2 0
0.0467242 -0.0750975 -0.659603 3 2 0
0.0466551 -0.0756381 -0.659296 3 2 0
0.0464094 -0.0754766 -0.659226 3 2 0
0.0463796 -0.0754207 -0.659217 3 2 0
0.046377 -0.075264 -0.659093 3 2 0
0.0463323 -0.0752046 -0.659071 3 2 0
0.0463047 -0.0751433 -0.659055 3 2 0
0.0462889 -0.0749622 -0.659093 3 2 0
0.0462568 -0.0748942 -0.659071 3 2 0
0.0462306 -0.0748323 -0.659051 3 2 0
0.0461948 -0.0749472 -0.659149 3 2 0
0.0461247 -0.0750004 -0.659129 3 2 0
0.0460838 -0.0750202 -0.659118 3 2 0
0.0460382 -0.0750584 -0.659189 3 2 0
0.0459952 -0.0750855 -0.659173 3 2 0
0.0459538 -0.0751106 -0.659157 3 2 0
0.0459235 -0.0750636 -0.659129 3 2 0
0.0458807 -0.0750912 -0.659113 3 2 0
0.0458392 -0.0751176 -0.659097 3 2 0
0.0458026 -0.0751494 -0.659085 3 2 0
0.0457608 -0.0751766 -0.659068 3 2 0
0.0457193 -0.0752043 -0.65905 3 2 0
0.0456887 -0.075173 -0.659014 3 2 0
0.045646 -0.0752012 -0.658996 3 2 0
0.0456044 -0.0752285 -0.658979 3 2 0
0.0455689 -0.0752466 -0.658956 3 2 0
0.0455269 -0.0752747 -0.658938 3 2 0
0.0454852 -0.0753031 -0.658919 3 2 0
0.0454576 -0.0752578 -0.658874 3 2 0
0.0454141 -0.0752863 -0.658855 3 2 0
0.0453724 -0.0753133 -0.658837 3 2 0
0.0453329 -0.0753591 -0.65882 3 2 0
0.045291 -0.0753873 -0.6588 3 2 0
0.0452491 -0.0754165 -0.65878 3 2 0
0.0452395 -0.075262 -0.65868 3 2 0
0.0451898 -0.0752896 -0.658661 3 2 0
0.0451483 -0.0753105 -0.658644 3 2 0
0.0450634 -0.0756502 -0.658648 3 2 0
0.0450037 -0.0757211 -0.658612 3 2 0
0.0449626 -0.075764 -0.658586 3 2 0
0.0449478 -0.0754523 -0.658439 3 2 0
0.0448887 -0.075494 -0.658407 3 2 0
0.0448479 -0.0755148 -0.658384 3 2 0
0.0448592 -0.0752867 -0.658512 3 2 0
0.0447797 -0.0753195 -0.658438 3 2 0
0.0447433 -0.0753096 -0.658399 3 2 0
0.0447805 -0.0753368 -0.658306 3 2 0
0.0447189 -0.0753211 -0.658275 3 2 0
0.0446844 -0.0753072 -0.658256 3 2 0
0.0445676 -0.0757802 -0.65863 3 2 0
0.0444967 -0.0757876 -0.65858 3 2 0
0.0444648 -0.0757699 -0.658556 3 2 0
0.0444379 -0.0754045 -0.658325 3 2 0
0.0444032 -0.0754003 -0.658302 3 2 0
0.0443704 -0.0753969 -0.658279 3 2 0
0.0442999 -0.0754313 -0.657894 3 2 0
0.0442676 -0.0753853 -0.657864 3 2 0
0.0442505 -0.0753443 -0.657852 3 2 0
0.0443123 -0.0754141 -0.658404 3 2 0
0.0449674 -0.0744456 -0.658814 3 2 0
0.0450154 -0.0741331 -0.658836 3 2 0
0.0450056 -0.0741529 -0.65886 3 2 0
0.0450338 -0.0741443 -0.658881 3 2 0
0.0450609 -0.0741354 -0.6589 3 2 0
0.0451137 -0.0739726 -0.65884 3 2 0
0.0451596 -0.0739372 -0.658863 3 2 0
0.0451972 -0.0739074 -0.658881 3 2 0
0.0451429 -0.074421 -0.658928 3 2 0
0.0452581 -0.0743064 -0.659016 3 2 0
0.0453001 -0.0742612 -0.659047 3 2 0
0.0453241 -0.0739297 -0.658941 3 2 0
0.0453684 -0.0738748 -0.658971 3 2 0
0.0454099 -0.0738223 -0.658999 3 2 0
0.0454781 -0.0736126 -0.65878 3 2 0
0.0455496 -0.07352 -0.658815 3 2 0
0.0455872 -0.0734579 -0.658834 3 2 0
0.0456859 -0.0734564 -0.6588 3 2 0
0.04574 -0.0734175 -0.658811 3 2 0
0.0457783 -0.0733886 -0.658818 3 2 0
0.0457362 -0.0737069 -0.659237 3 2 0
0.045823 -0.073613 -0.65929 3 2 0
0.0458656 -0.0735611 -0.659315 3 2 0
0.0459551 -0.0731288 -0.659238 3 2 0
0.0460144 -0.07308 -0.659257 3 2 0
0.046055 -0.0730454 -0.659269 3 2 0
0.0460332 -0.0734685 -0.659483 3 2 0
0.0461094 -0.0733882 -0.659528 3 2 0
0.0461527 -0.0733392 -0.659553 3 2 0
0.0462083 -0.0729573 -0.659515 3 2 0
0.046254 -0.0729106 -0.659536 3 2 0
0.0462966 -0.0728672 -0.659554 3 2 0
0.0463159 -0.0730949 -0.65962 3 2 0
0.0463664 -0.0730406 -0.659646 3 2 0
0.0464099 -0.0729934 -0.659668 3 2 0
0.0464456 -0.0728277 -0.659668 3 2 0
0.0464898 -0.0727795 -0.659689 3 2 0
0.0465334 -0.0727326 -0.65971 3 2 0
0.0465705 -0.0727546 -0.65973 3 2 0
0.0466149 -0.0727064 -0.659751 3 2 0
0.0466586 -0.0726597 -0.659771 3 2 0
0.0466935 -0.0726162 -0.659796 3 2 0
0.0467383 -0.0725673 -0.659816 3 2 0
0.0467822 -0.0725201 -0.659836 3 2 0
0.0468202 -0.0724877 -0.659856 3 2 0
0.0468647 -0.0724396 -0.659875 3 2 0
0.0469087 -0.0723929 -0.659893 3 2 0
0.0469466 -0.0723627 -0.659917 3 2 0
0.0469912 -0.0723147 -0.659936 3 2 0
0.0470354 -0.072268 -0.659953 3 2 0
0.0470744 -0.0722282 -0.659976 3 2 0
0.047119 -0.0721807 -0.659993 3 2 0
0.0471632 -0.0721346 -0.660009 3 2 0
0.0472033 -0.0720937 -0.66003 3 2 0
0.0472479 -0.0720469 -0.660046 3 2 0
0.0472922 -0.0720014 -0.660062 3 2 0
0.0473333 -0.0719559 -0.66008 3 2 0
0.0473778 -0.0719104 -0.660095 3 2 0
0.047422 -0.0718662 -0.660109 3 2 0
0.0474644 -0.071817 -0.660121 3 2 0
0.0475087 -0.0717731 -0.660134 3 2 0
0.0475528 -0.0717305 -0.660146 3 2 0
0.0475967 -0.0716778 -0.660145 3 2 0
0.0476407 -0.0716363 -0.660156 3 2 0
0.0476846 -0.0715964 -0.660166 3 2 0
0.0477302 -0.0715425 -0.660133 3 2 0
0.0477738 -0.0715053 -0.66014 3 2 0
0.0478171 -0.0714698 -0.660147 3 2 0
0.04786 -0.0714403 -0.660002 3 2 0
0.0479043 -0.0714103 -0.660004 3 2 0
0.0479463 -0.0713832 -0.660005 3 2 0
0.0479354 -0.0714932 -0.659915 3 2 0
0.0480281 -0.0714663 -0.659923 3 2 0
0.0480668 -0.0714594 -0.659927 3 2 0
0.0481627 -0.0714121 -0.659758 3 2 0
0.0482659 -0.0713637 -0.659795 3 2 0
0.0483073 -0.0713526 -0.659809 3 2 0
0.0483862 -0.0710648 -0.660233 3 2 0
0.0484525 -0.0710247 -0.660237 3 2 0
0.0484958 -0.0710019 -0.660239 3 2 0
0.0484053 -0.0714487 -0.659895 3 2 0
0.0485859 -0.0713689 -0.659972 3 2 0
0.0486236 -0.071399 -0.659991 3 2 0
0.0488425 -0.0712806 -0.660714 3 2 0
0.0489736 -0.0711762 -0.660744 3 2 0
0.0490193 -0.0711474 -0.660753 3 2 0
0.0489673 -0.0709759 -0.660198 3 2 0
0.0490991 -0.0709299 -0.660236 3 2 0
0.0491381 -0.0709494 -0.660249 3 2 0
0.0493133 -0.0709368 -0.6607 3 2 0
0.0494441 -0.0708635 -0.66071 3 2 0
0.0494881 -0.0708571 -0.660712 3 2 0
0.0495574 -0.0702989 -0.660806 3 2 0
0.049618 -0.070266 -0.66081 3 2 0
0.049663 -0.0702472 -0.660812 3 2 0
0.0496917 -0.0701888 -0.660591 3 2 0
0.0497434 -0.0701712 -0.66059 3 2 0
0.049787 -0.0701609 -0.660588 3 2 0
0.0498558 -0.0702313 -0.660839 3 2 0
0.0499133 -0.0702053 -0.660841 3 2 0
0.0499581 -0.0701911 -0.660842 3 2 0
0.0500199 -0.0698967 -0.660983 3 2 0
0.050074 -0.0698657 -0.660986 3 2 0
0.05012 -0.0698431 -0.660988 3 2 0
0.0501605 -0.0697887 -0.660893 3 2 0
0.0502071 -0.0697689 -0.660894 3 2 0
0.0502524 -0.0697514 -0.660894 3 2 0
0.050309 -0.0698289 -0.660962 3 2 0
0.0503574 -0.0698095 -0.660963 3 2 0
0.0504029 -0.0697939 -0.660964 3 2 0
0.0504722 -0.0695037 -0.661219 3 2 0
0.0505343 -0.0694602 -0.661224 3 2 0
0.0505817 -0.0694321 -0.661227 3 2 0
0.0506078 -0.0695063 -0.660895 3 2 0
0.0506675 -0.0694798 -0.660895 3 2 0
0.0507127 -0.0694676 -0.660895 3 2 0
0.0507871 -0.0694916 -0.661183 3 2 0
0.0508518 -0.0694549 -0.661187 3 2 0
0.0508983 -0.0694374 -0.661189 3 2 0
0.0509547 -0.0692383 -0.661207 3 2 0
0.0510045 -0.0692149 -0.661209 3 2 0
0.0510512 -0.0691957 -0.661211 3 2 0
0.0511057 -0.0690827 -0.661276 3 2 0
0.0511551 -0.0690576 -0.661279 3 2 0
0.0512024 -0.0690357 -0.661281 3 2 0
0.0512551 -0.0689644 -0.661315 3 2 0
0.0513037 -0.0689398 -0.661318 3 2 0
0.0513512 -0.0689172 -0.66132 3 2 0
0.0514065 -0.0688373 -0.661386 3 2 0
0.0514566 -0.0688099 -0.661389 3 2 0
0.0515045 -0.0687854 -0.661391 3 2 0
0.0515575 -0.0687274 -0.661408 3 2 0
0.0516065 -0.0687012 -0.66141 3 2 0
0.0516547 -0.068676 -0.661413 3 2 0
0.0517101 -0.0686059 -0.661466 3 2 0
0.0517604 -0.068577 -0.661469 3 2 0
0.0518092 -0.068549 -0.661472 3 2 0
0.0518626 -0.0684888 -0.661485 3 2 0
0.0519121 -0.0684604 -0.661488 3 2 0
0.0519606 -0.0684341 -0.661492 3 2 0
0.0520155 -0.0683619 -0.66154 3 2 0
0.0520658 -0.0683337 -0.661543 3 2 0
0.0521142 -0.0683092 -0.661547 3 2 0
0.0521671 -0.0682492 -0.661563 3 2 0
0.0522165 -0.0682226 -0.661567 3 2 0
0.052265 -0.0681975 -0.66157 3 2 0
0.0523189 -0.0681277 -0.661612 3 2 0
0.0523691 -0.0680989 -0.661616 3 2 0
0.0524179 -0.0680728 -0.66162 3 2 0
0.0524706 -0.0680105 -0.661638 3 2 0
0.0525187 -0.0679946 -0.661642 3 2 0
0.0525653 -0.0679798 -0.661647 3 2 0
0.0526168 -0.0679217 -0.661676 3 2 0
0.0526629 -0.0679133 -0.66168 3 2 0
0.0527077 -0.067906 -0.661684 3 2 0
0.0527545 -0.0678628 -0.661677 3 2 0
0.0527995 -0.067855 -0.661681 3 2 0
0.0528446 -0.0678468 -0.661686 3 2 0
0.0528958 -0.0677801 -0.661755 3 2 0
0.0529363 -0.0677971 -0.661759 3 2 0
0.0529726 -0.0678165 -0.661763 3 2 0
0.0530164 -0.0678141 -0.661803 3 2 0
0.0530548 -0.0678297 -0.661807 3 2 0
0.0530922 -0.0678457 -0.661811 3 2 0
0.0531319 -0.0678402 -0.661782 3 2 0
0.0531696 -0.0678552 -0.661786 3 2 0
0.0532074 -0.0678698 -0.66179 3 2 0
0.0532487 -0.0678353 -0.661809 3 2 0
0.0532875 -0.0678468 -0.661814 3 2 0
0.0533261 -0.067858 -0.661819 3 2 0
0.053368 -0.0678288 -0.661833 3 2 0
0.0534076 -0.0678369 -0.661838 3 2 0
0.053447 -0.0678446 -0.661844 3 2 0
0.0534867 -0.0678066 -0.661808 3 2 0
0.0535266 -0.0678117 -0.661814 3 2 0
0.0535667 -0.0678159 -0.66182 3 2 0
0.0536182 -0.0677375 -0.662017 3 2 0
0.0536627 -0.0677399 -0.662023 3 2 0
0.0537012 -0.0677473 -0.662029 3 2 0
0.0537325 -0.0678342 -0.661861 3 2 0
0.0537741 -0.0678392 -0.661868 3 2 0
0.0538133 -0.0678454 -0.661874 3 2 0
0.0538601 -0.067738 -0.661937 3 2 0
0.0539043 -0.0677332 -0.661944 3 2 0
0.0539456 -0.0677307 -0.661951 3 2 0
0.0539895 -0.0676914 -0.661977 3 2 0
0.0540318 -0.0676854 -0.661985 3 2 0
0.0540739 -0.0676791 -0.661992 3 2 0
0.0541188 -0.0676423 -0.662017 3 2 0
0.0541622 -0.0676323 -0.662025 3 2 0
0.0542052 -0.0676223 -0.662032 3 2 0
0.0542497 -0.0675815 -0.662018 3 2 0
0.0542934 -0.0675687 -0.662026 3 2 0
0.0543371 -0.0675554 -0.662034 3 2 0
0.0543837 -0.0674727 -0.66205 3 2 0
0.0544294 -0.0674532 -0.662058 3 2 0
0.0544743 -0.0674344 -0.662066 3 2 0
0.0545215 -0.0673407 -0.66209 3 2 0
0.0545682 -0.0673161 -0.662099 3 2 0
0.0546142 -0.0672919 -0.662107 3 2 0
0.0546638 -0.0671501 -0.662197 3 2 0
0.0547138 -0.0671138 -0.662206 3 2 0
0.0547621 -0.0670799 -0.662215 3 2 0
0.0548081 -0.0671159 -0.662108 3 2 0
0.0548562 -0.0670856 -0.662118 3 2 0
0.0549034 -0.0670558 -0.662127 3 2 0
0.0549517 -0.0671044 -0.662212 3 2 0
0.0549993 -0.0670736 -0.662222 3 2 0
0.055047 -0.067042 -0.662232 3 2 0
0.055095 -0.0669931 -0.662185 3 2 0
0.055143 -0.0669598 -0.662204 3 2 0
0.0551912 -0.0669255 -0.662224 3 2 0
0.0552396 -0.0669108 -0.662307 3 2 0
0.0552881 -0.0668747 -0.662318 3 2 0
0.0553368 -0.0668374 -0.66233 3 2 0
0.0553847 -0.0668507 -0.662289 3 2 0
0.0554337 -0.0668114 -0.662301 3 2 0
0.0554828 -0.0667708 -0.662314 3 2 0
0.0555311 -0.0667796 -0.662357 3 2 0
0.0555809 -0.0667348 -0.662371 3 2 0
0.0556309 -0.0666884 -0.662385 3 2 0
0.0556801 -0.0666657 -0.662382 3 2 0
0.0557306 -0.0666145 -0.662397 3 2 0
0.0557812 -0.0665613 -0.662412 3 2 0
0.0558314 -0.0664962 -0.662423 3 2 0
0.0558836 -0.066433 -0.662447 3 2 0
0.0559358 -0.0663678 -0.662472 3 2 0
0.0559875 -0.0662523 -0.662552 3 2 0
0.0560421 -0.0661715 -0.662577 3 2 0
0.0560966 -0.0660892 -0.662601 3 2 0
0.0561484 -0.0658773 -0.662755 3 2 0
0.0562065 -0.0657701 -0.662779 4 2 0
0.0562635 -0.0656637 -0.662802 3 2 0
0.0563101 -0.0652919 -0.66298 3 2 0
0.0563704 -0.0651596 -0.663002 3 2 0
0.0564274 -0.0650332 -0.663023 3 2 0
0.0564985 -0.0651381 -0.662982 3 2 0
0.0565615 -0.0650056 -0.663004 3 2 0
0.0566207 -0.064879 -0.663025 3 2 0
0.0566677 -0.064573 -0.663118 3 2 0
0.0567293 -0.0644313 -0.663139 3 2 0
0.0567879 -0.0642958 -0.663159 3 2 0
0.0568492 -0.0641706 -0.663242 3 2 0
0.0569086 -0.0640321 -0.663261 3 2 0
0.0569669 -0.0638965 -0.663279 3 2 0
0.0570032 -0.0636147 -0.663447 3 2 0
0.0570691 -0.0634587 -0.663469 3 2 0
0.0571271 -0.0633187 -0.663489 3 2 0
0.0572173 -0.0632243 -0.663481 3 2 0
0.057293 -0.0630539 -0.663504 3 2 0
0.0573526 -0.0629138 -0.663523 3 2 0
0.057378 -0.0627222 -0.663587 3 2 0
0.0574548 -0.0625481 -0.663613 3 2 0
0.0575151 -0.0624079 -0.663633 3 2 0
0.0576161 -0.0622963 -0.66362 3 2 0
0.0576982 -0.0621223 -0.663646 3 2 0
0.0577598 -0.0619871 -0.663665 3 2 0
0.0577837 -0.06182 -0.663723 3 2 0
0.0578655 -0.0616473 -0.66375 3 2 0
0.0579279 -0.0615132 -0.663771 3 2 0
0.0580403 -0.061429 -0.663743 3 2 0
0.0581283 -0.061257 -0.663772 3 2 0
0.058192 -0.0611298 -0.663792 3 2 0
0.0582185 -0.0609912 -0.663836 3 2 0
0.0583027 -0.0608256 -0.663864 3 2 0
0.0583667 -0.0606986 -0.663885 3 2 0
0.0584732 -0.06059 -0.663868 3 2 0
0.0585587 -0.0604302 -0.663895 3 2 0
0.058623 -0.0603084 -0.663916 3 2 0
0.0586434 -0.0601153 -0.664016 3 2 0
0.0587432 -0.0598945 -0.664044 3 2 0
0.0587985 -0.0597748 -0.664059 3 2 0
0.0589221 -0.0597797 -0.663967 3 2 0
0.0590288 -0.0595891 -0.664001 3 2 0
0.0590926 -0.0594794 -0.664021 3 2 0
0.0591261 -0.05937 -0.664004 3 2 0
0.0592151 -0.0592197 -0.664033 3 2 0
0.0592811 -0.0591098 -0.664054 3 2 0
0.0593674 -0.0589627 -0.664086 3 2 0
0.0594438 -0.0588348 -0.664109 3 2 0
0.0595096 -0.0587258 -0.66413 3 2 0
0.0595126 -0.0584871 -0.664318 3 2 0
0.0596159 -0.0583378 -0.664357 3 2 0
0.0596798 -0.0582549 -0.664383 3 2 0
0.0598439 -0.058308 -0.664201 3 2 0
0.0599985 -0.0580802 -0.664268 3 2 0
0.0600595 -0.0580028 -0.664295 3 2 0
0.0601074 -0.0580262 -0.664303 3 2 0
0.0602187 -0.0578597 -0.664337 3 2 0
0.0602852 -0.0577637 -0.664358 3 2 0
0.0603281 -0.0575707 -0.664452 3 2 0
0.0604029 -0.057462 -0.664477 3 2 0
0.0604696 -0.0573672 -0.6645 3 2 0
0.0605788 -0.0572287 -0.66455 3 2 0
0.0606719 -0.0570995 -0.66458 3 2 0
0.0607389 -0.057008 -0.664601 3 2 0
0.0607371 -0.0569005 -0.664656 3 2 0
0.060841 -0.0567774 -0.664696 3 2 0
0.0609011 -0.0567133 -0.664719 3 2 0
0.0610145 -0.0568952 -0.664274 3 2 0
0.0613051 -0.0565194 -0.664422 3 2 0
0.0613242 -0.0565162 -0.664434 3 2 0
0.0614155 -0.0565156 -0.664681 3 2 0
0.0615323 -0.0563608 -0.664718 3 2 0
0.0615987 -0.0562793 -0.664739 3 2 0
0.0616637 -0.0560086 -0.664673 3 2 0
0.0617356 -0.0559252 -0.664696 3 2 0
0.0618023 -0.0558489 -0.664717 3 2 0
0.0618451 -0.0557719 -0.664916 3 2 0
0.0619217 -0.0556873 -0.664943 3 2 0
0.0619866 -0.0556175 -0.664966 3 2 0
0.0621186 -0.0555169 -0.664963 3 2 0
0.0622188 -0.0554076 -0.664996 4 2 0
0.0622851 -0.0553383 -0.665018 3 2 0
0.062279 -0.0552827 -0.665179 3 2 0
0.0623769 -0.0551912 -0.665218 3 2 0
0.0624248 -0.0551499 -0.665237 3 2 0
0.0625939 -0.055081 -0.665122 3 2 0
0.0627192 -0.0549574 -0.665178 3 2 0
0.0627786 -0.0549018 -0.665204 3 2 0
0.0628261 -0.0548688 -0.665095 3 2 0
0.0629461 -0.0547528 -0.665133 3 2 0
0.0630123 -0.0546912 -0.665154 3 2 0
0.0630851 -0.0545757 -0.665058 3 2 0
0.0631565 -0.0545114 -0.66508 3 2 0
0.0632225 -0.0544531 -0.665102 3 2 0
0.0632767 -0.0543747 -0.665171 3 2 0
0.0633448 -0.0543177 -0.665194 3 2 0
0.0634088 -0.0542648 -0.665216 3 2 0
0.0635097 -0.0541739 -0.665165 3 2 0
0.0635965 -0.0541043 -0.665192 3 2 0
0.0636621 -0.0540526 -0.665214 3 2 0
0.0636602 -0.0540376 -0.665416 3 2 0
0.0637502 -0.0539704 -0.665452 3 2 0
0.0637982 -0.0539306 -0.665472 3 2 0
0.0639705 -0.0538045 -0.665491 3 2 0
0.0640762 -0.0537284 -0.665531 3 2 0
0.0641388 -0.0536829 -0.665555 3 2 0
0.0641609 -0.0536429 -0.66539 3 2 0
0.064276 -0.0535692 -0.665431 3 2 0
0.0643352 -0.0535273 -0.665453 3 2 0
0.0644637 -0.0533767 -0.665199 3 2 0
0.06456 -0.053314 -0.665235 3 2 0
0.0646204 -0.0532727 -0.665258 3 2 0
0.0646178 -0.0532098 -0.665371 3 2 0
0.0647009 -0.0531547 -0.665405 3 2 0
0.0647386 -0.0531179 -0.66542 3 2 0
0.0648867 -0.052919 -0.665414 3 2 0
0.0649699 -0.0528697 -0.665446 3 2 0
0.0650297 -0.0528322 -0.665469 3 2 0
0.0649938 -0.0528957 -0.665724 3 2 0
0.0650533 -0.0528411 -0.665751 3 2 0
0.0650317 -0.0528058 -0.665751 3 2 0
0.0648109 -0.0528562 -0.666066 3 2 0
0.0628171 -0.0549736 -0.665201 3 2 0
0.0627497 -0.0551405 -0.665175 3 2 0
0.0626493 -0.0553853 -0.665019 3 2 0
0.0625052 -0.0556094 -0.664977 3 2 0
0.0624381 -0.0557212 -0.664958 3 2 0
0.06233 -0.0560353 -0.6651 3 2 0
0.0622301 -0.0562148 -0.665065 3 2 0
0.0621635 -0.0563401 -0.665042 3 2 0
0.0621375 -0.0562853 -0.665011 3 2 0
0.0620415 -0.0564376 -0.664978 3 2 0
0.0619733 -0.056547 -0.664954 4 2 0
0.0618364 -0.0566026 -0.664987 3 2 0
0.0617217 -0.0568066 -0.664943 3 2 0
0.0616548 -0.0569315 -0.664918 3 2 0
0.0616656 -0.0569749 -0.664696 3 2 0
0.0615525 -0.0571674 -0.664649 3 2 0
0.0614847 -0.0572854 -0.664621 3 2 0
0.0613691 -0.0576406 -0.664788 3 2 0
0.0612585 -0.0578369 -0.66475 3 2 0
0.061191 -0.0579509 -0.664727 3 2 0
0.0611567 -0.0578743 -0.6647 3 2 0
0.0610727 -0.0580072 -0.664673 3 2 0
0.061008 -0.0581056 -0.664652 3 2 0
0.0608774 -0.0580243 -0.664681 3 2 0
0.0607495 -0.0582695 -0.664633 3 2 0
0.0606819 -0.0584042 -0.664607 3 2 0
0.060698 -0.0585349 -0.664316 3 2 0
0.0605595 -0.0588056 -0.664253 3 2 0
0.060493 -0.0589417 -0.664223 3 2 0
0.0603867 -0.0594314 -0.664486 3 2 0
0.0602735 -0.0596352 -0.664451 3 2 0
0.0602099 -0.0597311 -0.664431 3 2 0
0.0601367 -0.0596045 -0.664417 3 2 0
0.0600738 -0.0596893 -0.664396 3 2 0
0.0600168 -0.0597621 -0.664377 3 2 0
0.0599627 -0.0596773 -0.664327 4 2 0
0.0599073 -0.0597394 -0.664309 3 2 0
0.0598538 -0.0597978 -0.664292 3 2 0
0.0598046 -0.0597556 -0.664226 3 2 0
0.0597517 -0.0598092 -0.66421 3 2 0
0.0597001 -0.0598602 -0.664194 3 2 0
0.059608 -0.0598734 -0.664138 3 2 0
0.0595254 -0.05999 -0.66411 3 2 0
0.0594686 -0.060061 -0.664091 3 2 0
0.0594868 -0.0602428 -0.664162 3 2 0
0.0593777 -0.0604203 -0.664125 3 2 0
0.0593177 -0.0605038 -0.664104 3 2 0
0.0592214 -0.0606349 -0.664114 3 2 0
0.0591238 -0.060785 -0.664083 3 2 0
0.0590662 -0.0608575 -0.664065 3 2 0
0.0590215 -0.0609742 -0.66407 3 2 0
0.0589641 -0.0610447 -0.664053 3 2 0
0.0589123 -0.061103 -0.664038 3 2 0
0.058795 -0.0609467 -0.663919 3 2 0
0.058691 -0.0611244 -0.663881 3 2 0
0.058629 -0.0612198 -0.663859 3 2 0
0.0586709 -0.0613692 -0.663812 3 2 0
0.0585507 -0.0616195 -0.663763 3 2 0
0.058486 -0.0617606 -0.663737 3 2 0
0.058405 -0.0624255 -0.663787 3 2 0
0.0582976 -0.0626119 -0.663754 3 2 0
0.0582362 -0.0627074 -0.663734 3 2 0
0.0581485 -0.0624844 -0.663865 3 2 0
0.0580622 -0.062638 -0.663834 3 2 0
0.058 -0.0627389 -0.663811 3 2 0
0.0579918 -0.0630744 -0.663643 3 2 0
0.0578957 -0.0632703 -0.663609 3 2 0
0.0578314 -0.0634028 -0.663587 3 2 0
0.0577454 -0.0635795 -0.663499 3 2 0
0.0576682 -0.0637022 -0.663474 3 2 0
0.0576092 -0.0637875 -0.663454 3 2 0
0.0575436 -0.0636703 -0.663558 3 2 0
0.0574854 -0.0637419 -0.663539 3 2 0
0.057431 -0.0638056 -0.66352 3 2 0
0.0573544 -0.0636484 -0.66359 3 2 0
0.0572919 -0.0637187 -0.663568 3 2 0
0.0572432 -0.06376 -0.663552 3 2 0
0.0572323 -0.0636614 -0.663539 3 2 0
0.0571637 -0.0637388 -0.663517 3 2 0
0.057115 -0.0637788 -0.663502 3 2 0
0.0570314 -0.0637927 -0.663487 3 2 0
0.0569502 -0.0639025 -0.663459 3 2 0
0.056899 -0.0639513 -0.663442 3 2 0
0.0569061 -0.0641135 -0.663423 3 2 0
0.0568151 -0.0642623 -0.663394 3 2 0
0.0567564 -0.0643456 -0.663374 3 2 0
0.0566864 -0.0647339 -0.663268 3 2 0
0.0566154 -0.0648313 -0.663244 3 2 0
0.0565595 -0.0649005 -0.663225 3 2 0
0.0564861 -0.064715 -0.663309 3 2 0
0.0564211 -0.0647989 -0.663286 3 2 0
0.0563672 -0.0648595 -0.663267 3 2 0
0.0563453 -0.0649437 -0.663221 3 2 0
0.0562757 -0.0650374 -0.663199 4 2 0
0.0562204 -0.0651044 -0.66318 3 2 0
0.0561539 -0.0653284 -0.663092 3 2 0
0.0560916 -0.0654073 -0.663071 3 2 0
0.0560365 -0.0654728 -0.663052 3 2 0
0.0559685 -0.0653569 -0.663127 3 2 0
0.0559085 -0.0654261 -0.663107 3 2 0
0.0558557 -0.065481 -0.663088 3 2 0
0.0558089 -0.0654545 -0.66309 3 2 0
0.0557613 -0.0654806 -0.663075 3 2 0
0.055717 -0.0655014 -0.663061 3 2 0
0.055653 -0.0654343 -0.663071 3 2 0
0.0555931 -0.0654925 -0.663051 3 2 0
0.0555453 -0.0655271 -0.663035 3 2 0
0.0555357 -0.0655955 -0.663016 3 2 0
0.0554654 -0.0656791 -0.662993 3 2 0
0.0554129 -0.0657315 -0.662976 3 2 0
0.0553532 -0.0661178 -0.662842 3 2 0
0.0552929 -0.0661958 -0.66282 4 2 0
0.055237 -0.0662671 -0.662801 3 2 0
0.055179 -0.066366 -0.662667 3 2 0
0.0551202 -0.0664516 -0.662645 3 2 0
0.0550624 -0.0665365 -0.662624 3 2 0
0.0550062 -0.0666998 -0.66248 3 2 0
0.0549463 -0.066799 -0.662457 3 2 0
0.0548872 -0.0668975 -0.662433 3 2 0
0.0548318 -0.0670872 -0.66216 3 2 0
0.05477 -0.0672084 -0.662134 3 2 0
0.0547103 -0.0673263 -0.662109 3 2 0
0.0546545 -0.0676316 -0.662161 3 2 0
0.0545929 -0.0677687 -0.662141 4 2 0
0.054534 -0.0679007 -0.662122 3 2 0
0.0544776 -0.0680172 -0.662006 3 2 0
0.0544175 -0.0681528 -0.661987 3 2 0
0.0543593 -0.0682844 -0.66197 3 2 0
0.0543035 -0.0683646 -0.661992 3 2 0
0.0542435 -0.0684965 -0.661976 3 2 0
0.0541858 -0.068623 -0.66196 3 2 0
0.0541306 -0.0685463 -0.662118 3 2 0
0.0540676 -0.0686697 -0.662099 3 2 0
0.0540099 -0.0687819 -0.662082 3 2 0
0.0539505 -0.0688084 -0.662073 3 2 0
0.0538934 -0.0688951 -0.662054 3 2 0
0.0538404 -0.0689744 -0.662037 3 2 0
0.0537881 -0.0689603 -0.661896 3 2 0
0.0537366 -0.0690244 -0.661878 3 2 0
0.0536861 -0.0690847 -0.661861 3 2 0
0.0536303 -0.0693407 -0.661846 3 2 0
0.0535684 -0.0694414 -0.661834 3 2 0
0.053513 -0.0695297 -0.661824 3 2 0
0.0534512 -0.0697731 -0.661713 3 2 0
0.0533865 -0.0699197 -0.6617 3 2 0
0.05333 -0.0700466 -0.661689 3 2 0
0.0532726 -0.0701977 -0.661662 3 2 0
0.053215 -0.0703243 -0.66165 3 2 0
0.0531586 -0.0704473 -0.661639 3 2 0
0.0531017 -0.0706238 -0.661654 3 2 0
0.0530452 -0.0707447 -0.661643 3 2 0
0.0529891 -0.0708636 -0.661633 3 2 0
0.0529314 -0.0710748 -0.661611 3 2 0
0.0528735 -0.0711935 -0.6616 3 2 0
0.0528174 -0.071307 -0.661591 3 2 0
0.0527592 -0.0714864 -0.66157 3 2 0
0.0527019 -0.0715992 -0.66156 3 2 0
0.0526461 -0.0717078 -0.66155 3 2 0
0.0525883 -0.0718836 -0.661533 3 2 0
0.0525313 -0.0719906 -0.661523 3 2 0
0.0524757 -0.0720937 -0.661514 3 2 0
0.0524176 -0.072262 -0.661491 3 2 0
0.0523608 -0.0723638 -0.661482 3 2 0
0.0523055 -0.0724614 -0.661473 3 2 0
0.0522475 -0.0726224 -0.661449 3 2 0
0.052191 -0.0727186 -0.661441 3 2 0
0.0521361 -0.0728106 -0.661432 3 2 0
0.0520782 -0.0729649 -0.661406 3 2 0
0.0520221 -0.0730555 -0.661398 3 2 0
0.0519676 -0.0731419 -0.66139 3 2 0
0.0519097 -0.0732898 -0.661362 3 2 0
0.051854 -0.0733749 -0.661354 3 2 0
0.0518 -0.0734558 -0.661346 3 2 0
0.0517423 -0.0735976 -0.661316 3 2 0
0.051687 -0.0736774 -0.661308 3 2 0
0.0516334 -0.0737531 -0.661302 3 2 0
0.0515759 -0.0738891 -0.661269 3 2 0
0.0515211 -0.0739642 -0.661262 3 2 0
0.051468 -0.0740353 -0.661256 3 2 0
0.0514108 -0.0741662 -0.661221 3 2 0
0.0513564 -0.0742372 -0.661215 3 2 0
0.0513038 -0.0743042 -0.661209 3 2 0
0.0512468 -0.0744307 -0.661173 3 2 0
0.0511929 -0.0744982 -0.661166 3 2 0
0.0511408 -0.0745615 -0.661161 3 2 0
0.0510843 -0.0746839 -0.661123 3 2 0
0.0510308 -0.0747482 -0.661117 3 2 0
0.0509792 -0.0748084 -0.661112 3 2 0
0.0509231 -0.0749268 -0.661073 3 2 0
0.0508701 -0.0749882 -0.661067 3 2 0
0.0508191 -0.0750452 -0.661063 3 2 0
0.0507633 -0.0751599 -0.661022 3 2 0
0.0507109 -0.0752182 -0.661017 3 2 0
0.0506604 -0.0752721 -0.661012 3 2 0
0.0506051 -0.0753828 -0.66097 3 2 0
0.0505532 -0.0754381 -0.660966 3 2 0
0.0505032 -0.0754887 -0.660961 3 2 0
0.0504483 -0.0755954 -0.660918 3 2 0
0.050397 -0.0756475 -0.660914 3 2 0
0.0503476 -0.0756946 -0.66091 3 2 0
0.0502931 -0.0757974 -0.660865 3 2 0
0.0502423 -0.0758462 -0.660861 3 2 0
0.0501935 -0.0758899 -0.660858 3 2 0
0.0501394 -0.0759885 -0.660811 3 2 0
0.0500891 -0.0760339 -0.660808 3 2 0
0.0500409 -0.076074 -0.660805 3 2 0
0.0499872 -0.0761685 -0.660757 3 2 0
0.0499375 -0.0762105 -0.660754 3 2 0
0.0498898 -0.076247 -0.660751 3 2 0
0.0498365 -0.0763372 -0.660702 3 2 0
0.0497873 -0.0763757 -0.660699 3 2 0
0.0497402 -0.0764085 -0.660697 3 2 0
0.0496873 -0.0764946 -0.660646 3 2 0
0.0496386 -0.0765295 -0.660644 3 2 0
0.049592 -0.0765587 -0.660642 3 2 0
0.0495395 -0.0766406 -0.66059 3 2 0
0.0494913 -0.076672 -0.660588 3 2 0
0.0494453 -0.0766976 -0.660586 3 2 0
0.0493932 -0.0767752 -0.660533 3 2 0
0.0493454 -0.076803 -0.660531 3 2 0
0.0492999 -0.076825 -0.66053 3 2 0
0.0492482 -0.0768983 -0.660475 3 2 0
0.0492009 -0.0769227 -0.660474 3 2 0
0.0491559 -0.0769411 -0.660473 3 2 0
0.0491046 -0.0770103 -0.660417 3 2 0
0.0490578 -0.0770313 -0.660416 3 2 0
0.0490133 -0.0770462 -0.660415 3 2 0
0.0489623 -0.0771114 -0.660358 3 2 0
0.0489159 -0.0771289 -0.660357 3 2 0
0.0488719 -0.0771405 -0.660356 3 2 0
0.0488213 -0.0772017 -0.660298 3 2 0
0.0487754 -0.077216 -0.660298 3 2 0
0.0487318 -0.0772243 -0.660297 3 2 0
0.0486815 -0.0772818 -0.660238 3 2 0
0.0486361 -0.0772929 -0.660237 3 2 0
0.048593 -0.077298 -0.660237 3 2 0
0.048543 -0.0773516 -0.660177 3 2 0
0.048498 -0.0773595 -0.660177 3 2 0
0.0484553 -0.0773614 -0.660177 3 2 0
0.0484057 -0.0774114 -0.660115 3 2 0
0.0483611 -0.0774164 -0.660115 3 2 0
0.0483188 -0.0774153 -0.660115 3 2 0
0.0482696 -0.0774616 -0.660053 3 2 0
0.0482254 -0.0774636 -0.660054 3 2 0
0.0481836 -0.0774597 -0.660055 3 2 0
0.0481345 -0.077503 -0.659988 3 2 0
0.0480906 -0.0775025 -0.659989 3 2 0
0.0480493 -0.077496 -0.65999 3 2 0
0.0480008 -0.0775353 -0.659929 3 2 0
0.0479574 -0.0775318 -0.65993 3 2 0
0.0479165 -0.0775227 -0.659931 3 2 0
0.0478677 -0.0775605 -0.659856 3 2 0
0.0478244 -0.0775554 -0.659857 3 2 0
0.0477838 -0.0775443 -0.659859 3 2 0
0.0477366 -0.0775749 -0.659811 3 2 0
0.0476944 -0.0775657 -0.659812 3 2 0
0.0476542 -0.0775513 -0.659814 3 2 0
0.0476043 -0.0775901 -0.659698 3 2 0
0.0475603 -0.0775844 -0.6597 3 2 0
0.0475204 -0.0775712 -0.659702 3 2 0
0.0474787 -0.0775868 -0.659746 3 2 0
0.0474398 -0.0775898 -0.659747 3 2 0
0.0474022 -0.0775881 -0.659748 3 2 0
0.0473398 -0.0777066 -0.659637 3 2 0
0.0472817 -0.0777453 -0.659621 3 2 0
0.0472436 -0.0777553 -0.65961 3 2 0
0.0472276 -0.0778026 -0.659987 3 2 0
0.047163 -0.0778334 -0.659978 3 2 0
0.0471257 -0.077817 -0.659975 3 2 0
0.0470685 -0.0777677 -0.659758 3 2 0
0.0470087 -0.0779183 -0.65975 3 2 0
0.046983 -0.077928 -0.659748 3 2 0
0.0469504 -0.0776776 -0.659457 3 2 0
0.0469745 -0.0777542 -0.659456 3 2 0
0.0469995 -0.0777514 -0.659458 3 2 0
0.0470389 -0.0777807 -0.659697 3 2 0
0.047087 -0.0777197 -0.659705 3 2 0
0.0471238 -0.0776599 -0.659712 3 2 0
0.0471336 -0.077708 -0.65963 3 2 0
0.047198 -0.0776749 -0.659652 3 2 0
0.0472383 -0.0776452 -0.659666 3 2 0
0.0473236 -0.0776637 -0.66024 3 2 0
0.0474203 -0.0775442 -0.660268 3 2 0
0.0474609 -0.0774589 -0.660281 3 2 0
0.0474577 -0.0772897 -0.659974 3 2 0
0.0475566 -0.0772565 -0.659997 3 2 0
0.0475972 -0.07723 -0.660007 3 2 0
0.0477134 -0.0771097 -0.660251 3 2 0
0.0478416 -0.0770067 -0.660272 3 2 0
0.0478843 -0.0769434 -0.66028 3 2 0
0.0479173 -0.0767923 -0.659916 3 2 0
0.0479682 -0.0767514 -0.659933 3 2 0
0.0480108 -0.076715 -0.659948 3 2 0
0.0480855 -0.0766087 -0.660389 3 2 0
0.0481619 -0.0765224 -0.660402 3 2 0
0.0482051 -0.0764566 -0.66041 3 2 0
0.0482148 -0.0764244 -0.660096 3 2 0
0.0482929 -0.0763822 -0.660123 3 2 0
0.048337 -0.0763562 -0.660138 3 2 0
0.0484365 -0.0762513 -0.660625 3 2 0
0.0485388 -0.0761416 -0.660644 3 2 0
0.0485838 -0.0760734 -0.660654 3 2 0
0.0485957 -0.0759812 -0.66027 3 2 0
0.0486778 -0.0759328 -0.660298 3 2 0
0.0487231 -0.0759064 -0.660314 3 2 0
0.0488235 -0.0757481 -0.660747 3 2 0
0.048928 -0.0756361 -0.660766 3 2 0
0.0489743 -0.0755708 -0.660775 3 2 0
0.0490007 -0.0754415 -0.660371 3 2 0
0.0490677 -0.0753916 -0.660393 3 2 0
0.049114 -0.0753568 -0.660409 3 2 0
0.0491958 -0.0752436 -0.660806 3 2 0
0.0492782 -0.075154 -0.660818 3 2 0
0.0493255 -0.075095 -0.660826 3 2 0
0.049367 -0.0749381 -0.660486 3 2 0
0.049418 -0.0748899 -0.660491 3 2 0
0.0494655 -0.0748459 -0.660495 3 2 0
0.0495293 -0.0747515 -0.660837 3 2 0
0.0495888 -0.0746851 -0.660845 3 2 0
0.0496369 -0.0746304 -0.660852 3 2 0
0.0496869 -0.0744872 -0.660746 3 2 0
0.0497353 -0.0744359 -0.660752 3 2 0
0.0497839 -0.0743861 -0.660758 3 2 0
0.0498403 -0.0742931 -0.660896 3 2 0
0.0498923 -0.0742356 -0.660902 3 2 0
0.0499413 -0.0741824 -0.660909 3 2 0
0.049994 -0.074071 -0.660908 3 2 0
0.0500438 -0.0740172 -0.660915 3 2 0
0.0500933 -0.0739653 -0.660921 3 2 0
0.0501487 -0.073873 -0.660992 3 2 0
0.0502 -0.0738172 -0.660999 3 2 0
0.05025 -0.0737643 -0.661005 3 2 0
0.0503044 -0.0736622 -0.661037 3 2 0
0.0503554 -0.0736074 -0.661044 3 2 0
0.0504057 -0.0735547 -0.661051 3 2 0
0.0504609 -0.0734634 -0.661099 3 2 0
0.0505126 -0.073408 -0.661106 3 2 0
0.0505633 -0.0733549 -0.661113 3 2 0
0.0506185 -0.073258 -0.661152 3 2 0
0.0506704 -0.0732025 -0.661159 3 2 0
0.0507215 -0.0731491 -0.661167 3 2 0
0.050777 -0.0730553 -0.661207 3 2 0
0.0508293 -0.0729994 -0.661215 3 2 0
0.0508808 -0.0729455 -0.661222 3 2 0
0.0509363 -0.0728505 -0.661259 3 2 0
0.050989 -0.0727942 -0.661267 3 2 0
0.0510408 -0.0727399 -0.661275 3 2 0
0.0510965 -0.0726453 -0.661311 3 2 0
0.0511495 -0.0725886 -0.661319 3 2 0
0.0512017 -0.0725336 -0.661327 3 2 0
0.0512575 -0.0724386 -0.661361 3 2 0
0.0513107 -0.0723814 -0.661369 3 2 0
0.0513633 -0.0723258 -0.661377 3 2 0
0.0514192 -0.0722309 -0.661409 3 2 0
0.0514727 -0.0721732 -0.661417 3 2 0
0.0515255 -0.072117 -0.661426 3 2 0
0.0515815 -0.0720218 -0.661455 3 2 0
0.0516352 -0.0719633 -0.661464 3 2 0
0.0516884 -0.0719062 -0.661472 3 2 0
0.0517444 -0.0718109 -0.661498 3 2 0
0.0517984 -0.0717517 -0.661507 3 2 0
0.0518519 -0.0716936 -0.661516 3 2 0
0.0519079 -0.0715974 -0.661539 3 2 0
0.0519622 -0.071537 -0.661548 3 2 0
0.0520161 -0.0714775 -0.661558 3 2 0
0.0520721 -0.0713791 -0.661576 3 2 0
0.0521305 -0.0712771 -0.661586 3 2 0
0.0521842 -0.0711855 -0.661596 3 2 0
0.0522386 -0.071053 -0.66161 3 2 0
0.0522925 -0.0709594 -0.661619 3 2 0
0.0523459 -0.0708673 -0.661629 3 2 0
0.0524 -0.0707347 -0.661634 3 2 0
0.0524538 -0.070642 -0.661643 3 2 0
0.0525072 -0.0705505 -0.661653 3 2 0
0.0525612 -0.070414 -0.661642 3 2 0
0.0526149 -0.0703222 -0.661652 3 2 0
0.0526683 -0.0702314 -0.661662 3 2 0
0.0527226 -0.0700977 -0.661695 3 2 0
0.0527767 -0.0700052 -0.661713 3 2 0
0.0528303 -0.0699144 -0.66173 3 2 0
0.0528845 -0.0697841 -0.661772 3 2 0
0.0529385 -0.0696923 -0.661789 3 2 0
0.0529922 -0.0696018 -0.661806 3 2 0
0.0530465 -0.0694696 -0.661848 3 2 0
0.0531007 -0.0693776 -0.661865 3 2 0
0.0531544 -0.0692873 -0.661882 3 2 0
0.0532085 -0.069147 -0.661944 3 2 0
0.0532626 -0.0690558 -0.661961 3 2 0
0.0533164 -0.0689657 -0.661977 3 2 0
0.0533711 -0.0688203 -0.662019 3 2 0
0.0534265 -0.0687256 -0.662035 3 2 0
0.0534805 -0.0686351 -0.662051 3 2 0
0.0535354 -0.0685138 -0.662068 3 2 0
0.0535905 -0.0684203 -0.662084 3 2 0
0.0536444 -0.0683302 -0.6621 3 2 0
0.053699 -0.0682023 -0.662144 3 2 0
0.0537535 -0.068111 -0.662159 3 2 0
0.0538075 -0.0680216 -0.662175 3 2 0
0.0538621 -0.067846 -0.662278 3 2 0
0.0539171 -0.0677521 -0.662293 3 2 0
0.053971 -0.0676618 -0.662307 3 2 0
0.054027 -0.0674956 -0.662346 3 2 0
0.0540849 -0.0673937 -0.66236 3 2 0
0.054139 -0.0673016 -0.662373 3 2 0
0.0541944 -0.0671248 -0.662465 3 2 0
0.0542503 -0.067027 -0.662477 3 2 0
0.0543044 -0.0669345 -0.66249 3 2 0
0.0543596 -0.0669142 -0.662386 3 2 0
0.0544136 -0.0668248 -0.662399 3 2 0
0.0544675 -0.066737 -0.662412 3 2 0
0.0545188 -0.0667146 -0.66236 3 2 0
0.054574 -0.0666297 -0.662375 3 2 0
0.0546279 -0.0665487 -0.662391 3 2 0
0.0546832 -0.0665437 -0.662294 3 2 0
0.0547368 -0.0664629 -0.66231 3 2 0
0.0547901 -0.0663832 -0.662326 3 2 0
0.0548437 -0.06627 -0.662381 3 2 0
0.0548973 -0.0661903 -0.662397 3 2 0
0.0549506 -0.0661116 -0.662413 3 2 0
0.0550043 -0.0660454 -0.662386 3 2 0
0.0550576 -0.0659673 -0.662402 3 2 0
0.055111 -0.0658894 -0.662419 3 2 0
0.0551644 -0.0658303 -0.662401 3 2 0
0.0552177 -0.0657531 -0.662418 3 2 0
0.0552711 -0.0656759 -0.662435 3 2 0
0.0553243 -0.0656155 -0.662436 3 2 0
0.0553777 -0.0655386 -0.662447 3 2 0
0.0554312 -0.0654613 -0.662458 3 2 0
0.0554844 -0.0653996 -0.662489 3 2 0
0.055538 -0.0653219 -0.662501 3 2 0
0.0555916 -0.0652437 -0.662513 3 2 0
0.0556449 -0.065176 -0.662537 3 2 0
0.0556988 -0.0650964 -0.66255 3 2 0
0.0557527 -0.0650161 -0.662563 3 2 0
0.0558063 -0.0649424 -0.662583 3 2 0
0.0558606 -0.0648598 -0.662596 3 2 0
0.055915 -0.0647763 -0.66261 3 2 0
0.0559689 -0.0646938 -0.662624 3 2 0
0.0560237 -0.0646071 -0.662638 3 2 0
0.0560785 -0.0645196 -0.662652 3 2 0
0.0561329 -0.0644262 -0.662658 3 2 0
0.0561883 -0.0643343 -0.662673 3 2 0
0.0562438 -0.0642416 -0.662688 3 2 0
0.0562986 -0.0641328 -0.662699 3 2 0
0.0563547 -0.0640345 -0.662719 3 2 0
0.0564109 -0.0639357 -0.662739 3 2 0
0.0564659 -0.0638047 -0.662806 3 2 0
0.0565231 -0.0636984 -0.662825 3 2 0
0.0565801 -0.0635922 -0.662844 3 2 0
0.0566344 -0.0634218 -0.662966 3 2 0
0.0566931 -0.0633038 -0.662985 3 2 0
0.0567511 -0.0631876 -0.663003 3 2 0
0.0567969 -0.0628847 -0.663316 3 2 0
0.0568683 -0.0627419 -0.663339 3 2 0
0.0569314 -0.0626161 -0.663359 3 2 0
0.0570219 -0.062556 -0.663012 3 2 0
0.0570943 -0.0624313 -0.663038 3 2 0
0.057156 -0.0623274 -0.66306 3 2 0
0.0572144 -0.0623388 -0.663046 3 2 0
0.0572806 -0.0622204 -0.663068 3 2 0
0.0573435 -0.0621087 -0.66309 3 2 0
0.0573922 -0.0618188 -0.663514 3 2 0
0.0574627 -0.061688 -0.663537 3 2 0
0.0575269 -0.0615695 -0.663558 3 2 0
0.0575918 -0.0613792 -0.663573 3 2 0
0.0576601 -0.0612451 -0.663593 3 2 0
0.0577218 -0.0611234 -0.663611 3 2 0
0.0577486 -0.0608119 -0.663861 3 2 0
0.0578459 -0.0606471 -0.663899 3 2 0
0.0579115 -0.0605389 -0.663923 3 2 0
0.0580442 -0.0609415 -0.66366 4 2 0
0.058175 -0.0607485 -0.663715 3 2 0
0.0582265 -0.060699 -0.663738 3 2 0
0.0582931 -0.0605116 -0.663572 3 2 0
0.0583976 -0.0603374 -0.663606 3 2 0
0.0584622 -0.0602327 -0.663627 3 2 0
0.058523 -0.0600329 -0.66378 3 2 0
0.0585891 -0.0599231 -0.663801 3 2 0
0.058654 -0.059816 -0.663822 3 2 0
0.058697 -0.0596302 -0.663976 3 2 0
0.0587692 -0.0595069 -0.663999 3 2 0
0.0588339 -0.0593975 -0.66402 3 2 0
0.0589265 -0.059304 -0.664099 3 2 0
0.0590061 -0.0591718 -0.664125 3 2 0
0.0590709 -0.0590644 -0.664145 3 2 0
0.0590358 -0.0588322 -0.664206 3 2 0
0.0591533 -0.05867 -0.664254 3 2 0
0.059214 -0.0585981 -0.664279 3 2 0
0.059294 -0.0589973 -0.663424 3 2 0
0.0588706 -0.0600033 -0.663161 3 2 0
0.0589083 -0.0600683 -0.663201 3 2 0
0.0589653 -0.0599689 -0.664114 3 2 0
0.0596633 -0.0588074 -0.66433 3 2 0
0.0597296 -0.0587024 -0.664351 3 2 0
0.0597764 -0.0584935 -0.664343 3 2 0
0.0598537 -0.0583637 -0.664367 3 2 0
0.05992 -0.0582535 -0.664388 3 2 0
0.0600092 -0.0581216 -0.664418 3 2 0
0.0600876 -0.0579935 -0.664441 3 2 0
0.0601536 -0.0578868 -0.664461 3 2 0
0.0601414 -0.0577046 -0.664574 3 2 0
0.060249 -0.0575594 -0.664616 3 2 0
0.060311 -0.0574877 -0.664641 3 2 0
0.0604763 -0.0575363 -0.664276 3 2 0
0.0607483 -0.0571506 -0.664414 3 2 0
0.0608071 -0.0570844 -0.664444 3 2 0
0.0608571 -0.0571957 -0.664667 3 2 0
0.0610505 -0.0569524 -0.664739 3 2 0
0.0611106 -0.0568825 -0.664762 3 2 0
0.0611693 -0.0566577 -0.66473 3 2 0
0.0612335 -0.0565822 -0.664754 3 2 0
0.0612948 -0.056511 -0.664777 3 2 0
0.0613434 -0.056428 -0.664895 4 2 0
0.0614144 -0.0563433 -0.664921 3 2 0
0.0614796 -0.056267 -0.664946 3 2 0
0.0616008 -0.0561643 -0.66495 3 2 0
0.0616953 -0.0560534 -0.664984 3 2 0
0.0617616 -0.0559776 -0.665007 3 2 0
0.0617551 -0.0558658 -0.66517 3 2 0
0.0618508 -0.0557727 -0.665205 3 2 0
0.0618846 -0.0557523 -0.665219 3 2 0
0.0621068 -0.0556447 -0.664698 3 2 0
0.0622179 -0.0555259 -0.664749 3 2 0
0.0622814 -0.0554617 -0.664778 3 2 0
0.0623282 -0.0555318 -0.665183 3 2 0
0.0624564 -0.0553811 -0.665225 4 2 0
0.0625251 -0.0553062 -0.665249 3 2 0
0.0626323 -0.0551115 -0.665233 3 2 0
0.0627223 -0.0550262 -0.665263 3 2 0
0.0627888 -0.0549644 -0.665285 3 2 0
0.0628037 -0.0549131 -0.665365 3 2 0
0.0629016 -0.0548168 -0.665402 3 2 0
0.0629568 -0.0547669 -0.665424 3 2 0
0.0631046 -0.0546377 -0.665257 3 2 0
0.0632156 -0.054536 -0.6653 3 2 0
0.063276 -0.0544823 -0.665324 3 2 0
0.0632861 -0.0544254 -0.665285 3 2 0
0.063385 -0.0543343 -0.665322 3 2 0
0.0634423 -0.0542837 -0.665345 3 2 0
0.063573 -0.05418 -0.665057 3 2 0
0.0636687 -0.0540997 -0.66509 3 2 0
0.0637289 -0.0540497 -0.665112 3 2 0
0.0637315 -0.0539772 -0.665323 3 2 0
0.0638211 -0.0539026 -0.665358 3 2 0
0.0638684 -0.0538628 -0.665379 3 2 0
0.0640081 -0.0537841 -0.665112 3 2 0
0.0641044 -0.0537084 -0.665147 3 2 0
0.064161 -0.0536632 -0.665169 3 2 0
0.064159 -0.0535778 -0.665319 3 2 0
0.064249 -0.0535058 -0.665354 3 2 0
0.0642942 -0.0534678 -0.665375 3 2 0
0.0644256 -0.0533714 -0.665295 3 2 0
0.0645129 -0.0533081 -0.665325 3 2 0
0.0645727 -0.053264 -0.665347 3 2 0
0.0645361 -0.0532811 -0.665984 3 2 0
0.0646539 -0.0531986 -0.666025 4 2 0
0.0646555 -0.0531764 -0.66603 3 2 0
0.0646555 -0.053204 -0.66598 3 2 0
0.0406664 -0.0812407 -0.655298 4 3 0
0.0406975 -0.0813479 -0.655323 3 3 0
0.0406833 -0.081408 -0.655311 3 3 0
0.040672 -0.0811052 -0.655192 3 3 0
0.0406644 -0.0811466 -0.655184 3 3 0
0.0406959 -0.0812369 -0.655201 3 3 0
0.0406652 -0.0814417 -0.655006 3 3 0
0.0407062 -0.081549 -0.655037 3 3 0
0.0407128 -0.0815823 -0.655039 3 3 0
0.0406336 -0.0817811 -0.655141 3 3 0
0.0405825 -0.0819183 -0.655101 3 3 0
0.0405342 -0.081872 -0.655059 3 3 0
0.0404661 -0.0818234 -0.654743 3 3 0
0.0404389 -0.0818311 -0.65472 3 3 0
0.0404187 -0.081843 -0.654703 3 3 0
0.0405438 -0.0811007 -0.655149 3 3 0
0.0404109 -0.0810509 -0.65493 3 3 0
0.0403935 -0.0810901 -0.654906 3 3 0
0.0403454 -0.0824714 -0.654792 3 3 0
0.0402897 -0.082383 -0.65473 3 3 0
0.040274 -0.0824309 -0.654715 3 3 0
0.0402425 -0.081515 -0.655033 3 3 0
0.040218 -0.0814972 -0.655014 3 3 0
0.0402 -0.0814883 -0.655001 3 3 0
0.0401534 -0.08163 -0.654651 3 3 0
0.04014 -0.0816874 -0.654635 3 3 0
0.0401443 -0.0817607 -0.654636 4 3 0
0.0402221 -0.0823446 -0.654844 3 3 0
0.0402394 -0.0824505 -0.65486 3 3 0
0.0402503 -0.0825402 -0.654869 3 3 0
0.0402089 -0.0821819 -0.654764 3 3 0
0.0402319 -0.0822699 -0.654778 3 3 0
0.0402428 -0.0823581 -0.654783 3 3 0
0.0402273 -0.0824839 -0.654482 3 3 0
0.0402439 -0.0825707 -0.654493 3 3 0
0.0402546 -0.0826525 -0.654499 3 3 0
0.0402604 -0.0829712 -0.654686 3 3 0
0.0402753 -0.0830613 -0.654698 3 3 0
0.0402883 -0.0831499 -0.654709 3 3 0
0.0402999 -0.083154 -0.654727 3 3 0
0.0403175 -0.0832436 -0.654741 3 3 0
0.0403327 -0.0833327 -0.654752 3 3 0
0.0403274 -0.0833606 -0.654583 3 3 0
0.0403458 -0.083445 -0.654599 4 3 0
0.0403629 -0.0835291 -0.654614 3 3 0
0.0403993 -0.0836017 -0.65477 3 3 0
0.0404189 -0.0837121 -0.654787 3 3 0
0.040433 -0.0838108 -0.6548 3 3 0
0.040459 -0.0841696 -0.654974 3 3 0
0.0404801 -0.0842931 -0.654991 3 3 0
0.040492 -0.0844178 -0.655 3 3 0
0.0404729 -0.0843176 -0.654694 3 3 0
0.0404907 -0.0844355 -0.654706 3 3 0
0.0405037 -0.0845427 -0.654715 3 3 0
0.0405422 -0.084216 -0.654674 3 3 0
0.0405635 -0.0844085 -0.654695 3 3 0
0.0405682 -0.0845385 -0.654699 3 3 0
0.0405566 -0.0856543 -0.655128 3 3 0
0.0405951 -0.0859145 -0.655166 3 3 0
0.0406054 -0.0860591 -0.655176 3 3 0
0.0406515 -0.0858308 -0.655217 3 3 0
0.0406776 -0.0859631 -0.655232 3 3 0
0.0406976 -0.0860691 -0.655244 3 3 0
0.0406834 -0.0858931 -0.654819 3 3 0
0.0407092 -0.0859891 -0.654835 3 3 0
0.0407317 -0.086074 -0.654848 3 3 0
0.0407584 -0.086007 -0.654965 3 3 0
0.0407974 -0.0860271 -0.654998 3 3 0
0.040824 -0.0860487 -0.65502 3 3 0
0.0408533 -0.0866854 -0.65535 3 3 0
0.0408863 -0.0867621 -0.655377 3 3 0
0.0409116 -0.0868204 -0.655398 3 3 0
0.0409591 -0.0868028 -0.655454 3 3 0
0.0409868 -0.0869211 -0.655472 3 3 0
0.0410092 -0.0870171 -0.655487 3 3 0
0.0409825 -0.0868065 -0.654956 3 3 0
0.041014 -0.0868896 -0.654979 3 3 0
0.0410376 -0.0869498 -0.654997 3 3 0
0.041128 -0.0863696 -0.655314 3 3 0
0.0411792 -0.0866628 -0.655355 3 3 0
0.0411946 -0.0867624 -0.655367 3 3 0
0.0411671 -0.0884781 -0.655725 3 3 0
0.0411495 -0.0888126 -0.65572 3 3 0
0.0411433 -0.088934 -0.655718 3 3 0
0.0411814 -0.0885117 -0.655625 3 3 0
0.0412029 -0.0886702 -0.655636 3 3 0
0.041219 -0.0887876 -0.655645 3 3 0
0.0412019 -0.0885977 -0.655298 3 3 0
0.0412328 -0.0886804 -0.655321 3 3 0
0.0412577 -0.0887445 -0.655339 3 3 0
0.0412981 -0.0887993 -0.655637 3 3 0
0.0413311 -0.0889019 -0.655665 3 3 0
0.0413556 -0.0889755 -0.655686 3 3 0
0.041377 -0.0897596 -0.655876 3 3 0
0.0414057 -0.0898655 -0.6559 3 3 0
0.0414287 -0.0899436 -0.655919 3 3 0
0.0414749 -0.0896872 -0.655847 4 3 0
0.0415026 -0.0897594 -0.655865 3 3 0
0.041528 -0.0898233 -0.655881 3 3 0
0.0415347 -0.0896228 -0.655667 3 3 0
0.0415635 -0.0896756 -0.655689 3 3 0
0.0415902 -0.0897225 -0.65571 3 3 0
0.0416252 -0.0898978 -0.655978 3 3 0
0.0416621 -0.0899158 -0.656008 3 3 0
0.0416916 -0.0899292 -0.656032 3 3 0
0.0417216 -0.0904416 -0.656145 3 3 0
0.0417514 -0.0905073 -0.656169 3 3 0
0.0417767 -0.0905566 -0.656189 3 3 0
0.0418168 -0.0903589 -0.656117 4 3 0
0.0418429 -0.0904236 -0.656134 3 3 0
0.0418676 -0.0904809 -0.65615 3 3 0
0.0418851 -0.0903571 -0.656056 3 3 0
0.0419117 -0.0904058 -0.656076 3 3 0
0.0419377 -0.0902809 -0.656096 3 3 0
0.0419651 -0.090158 -0.656259 3 3 0
0.0419921 -0.0899827 -0.65628 3 3 0
0.042018 -0.0898223 -0.656301 3 3 0
0.0420456 -0.0897096 -0.65637 3 3 0
0.0420723 -0.0895455 -0.65639 3 3 0
0.0420978 -0.089397 -0.65641 3 3 0
0.0421348 -0.0892993 -0.65638 3 3 0
0.0421631 -0.0891591 -0.656399 3 3 0
0.0421908 -0.0890267 -0.656419 3 3 0
0.0422188 -0.0888921 -0.6564 4 3 0
0.0422471 -0.0887615 -0.65642 3 3 0
0.0422752 -0.088635 -0.656441 3 3 0
0.0423037 -0.0885391 -0.656514 3 3 0
0.0423318 -0.0884164 -0.656535 3 3 0
0.0423599 -0.0882979 -0.656557 3 3 0
0.0423896 -0.0882068 -0.656596 3 3 0
0.0424176 -0.0880907 -0.656617 3 3 0
0.0424454 -0.0879799 -0.656638 3 3 0
0.0424771 -0.08789 -0.656647 3 3 0
0.042505 -0.0877774 -0.656668 3 3 0
0.0425327 -0.0876699 -0.656688 3 3 0
0.0425631 -0.0875801 -0.656699 4 3 0
0.042591 -0.0874734 -0.656719 3 3 0
0.0426189 -0.0873709 -0.656739 3 3 0
0.0426483 -0.0872878 -0.656767 3 3 0
0.0426762 -0.0871883 -0.656788 3 3 0
0.0427041 -0.0870927 -0.656809 3 3 0
0.0427337 -0.0870152 -0.656835 3 3 0
0.0427617 -0.0869224 -0.656856 3 3 0
0.0427896 -0.0868338 -0.656877 3 3 0
0.0428197 -0.0867606 -0.656897 3 3 0
0.0428478 -0.0866737 -0.656917 3 3 0
0.0428757 -0.0865911 -0.656938 3 3 0
0.042906 -0.0865222 -0.656954 3 3 0
0.0429342 -0.0864415 -0.656975 3 3 0
0.0429622 -0.086365 -0.656996 3 3 0
0.0429922 -0.0862983 -0.657013 4 3 0
0.0430202 -0.0862215 -0.657033 3 3 0
0.0430481 -0.0861488 -0.657054 3 3 0
0.0430781 -0.0860868 -0.657071 3 3 0
0.0431062 -0.0860155 -0.657092 3 3 0
0.0431341 -0.0859484 -0.657112 3 3 0
0.0431641 -0.0858878 -0.657127 4 3 0
0.043192 -0.0858201 -0.657147 3 3 0
0.0432198 -0.0857565 -0.657168 3 3 0
0.0432495 -0.0856975 -0.65718 4 3 0
0.0432348 -0.0859525 -0.657171 3 3 0
0.0432625 -0.0857586 -0.657192 3 3 0
0.0432864 -0.0856536 -0.657181 3 3 0
0.0433074 -0.0855657 -0.657197 3 3 0
0.0433285 -0.0854819 -0.657213 3 3 0
0.0433491 -0.0854316 -0.657257 3 3 0
0.0433705 -0.0853497 -0.657273 3 3 0
0.0433918 -0.0852723 -0.657289 3 3 0
0.0434175 -0.0851929 -0.65727 4 3 0
0.0434399 -0.0851149 -0.657287 3 3 0
0.0434621 -0.0850421 -0.657303 3 3 0
0.0434869 -0.0849883 -0.657309 3 3 0
0.0434996 -0.0850746 -0.657321 3 3 0
0.0435013 -0.0850146 -0.657324 3 3 0
0.0435092 -0.0849355 -0.657262 3 3 0
0.043514 -0.0848616 -0.657267 3 3 0
0.0435192 -0.0847908 -0.657272 3 3 0
0.0435184 -0.0847678 -0.657349 3 3 0
0.0435263 -0.0846918 -0.657356 3 3 0
0.0435346 -0.0846196 -0.657364 3 3 0
0.0435457 -0.0845371 -0.657371 3 3 0
0.0435553 -0.0844691 -0.657379 3 3 0
0.043565 -0.084404 -0.657388 3 3 0
0.0435861 -0.0845585 -0.657435 3 3 0
0.0435584 -0.0847253 -0.65742 3 3 0
0.0435187 -0.0847194 -0.657397 3 3 0
0.0435602 -0.0846811 -0.657408 3 3 0
0.0435884 -0.0846154 -0.657429 3 3 0
0.0436148 -0.084564 -0.657449 3 3 0
0.0436393 -0.0845796 -0.657501 3 3 0
0.0436678 -0.0845205 -0.657521 3 3 0
0.0436943 -0.0844765 -0.657539 3 3 0
0.0437235 -0.0843883 -0.657577 3 3 0
0.0437514 -0.0843488 -0.657598 3 3 0
0.0437784 -0.084317 -0.657619 3 3 0
0.0438002 -0.0843376 -0.657691 3 3 0
0.043827 -0.0843179 -0.657712 3 3 0
0.0438532 -0.084304 -0.657732 3 3 0
0.0438822 -0.0842577 -0.657758 3 3 0
0.0439085 -0.0842531 -0.657778 3 3 0
0.0439342 -0.0842537 -0.657799 3 3 0
0.0439574 -0.084281 -0.657837 3 3 0
0.0439827 -0.0842906 -0.657857 3 3 0
0.0440079 -0.0843032 -0.657877 3 3 0
0.0440357 -0.0843019 -0.657902 3 3 0
0.0440608 -0.0843245 -0.657921 3 3 0
0.0440853 -0.0843518 -0.657941 3 3 0
0.0441092 -0.0844023 -0.657974 3 3 0
0.0441329 -0.0844428 -0.657993 3 3 0
0.0441564 -0.0844858 -0.658011 3 3 0
0.0441832 -0.0845538 -0.658042 3 3 0
0.0442073 -0.0846084 -0.658061 3 3 0
0.0442293 -0.0846727 -0.658078 3 3 0
0.0442527 -0.0847902 -0.658114 3 3 0
0.0442744 -0.08487 -0.658131 3 3 0
0.044294 -0.0849586 -0.658146 3 3 0
0.0443162 -0.085071 -0.658174 3 3 0
0.0443359 -0.0851672 -0.658189 3 3 0
0.0443543 -0.0852688 -0.658204 3 3 0
0.0443749 -0.0853836 -0.658221 3 3 0
0.0443935 -0.085489 -0.658235 3 3 0
0.0444114 -0.0855971 -0.658249 3 3 0
0.0444319 -0.0857296 -0.658267 3 3 0
0.0444503 -0.0858415 -0.658281 3 3 0
0.0444676 -0.0859578 -0.658294 3 3 0
0.0444884 -0.0861241 -0.658313 3 3 0
0.0445077 -0.0862414 -0.658327 3 3 0
0.0445239 -0.0863686 -0.65834 3 3 0
0.0445449 -0.086566 -0.658357 3 3 0
0.0445683 -0.0864349 -0.658375 3 3 0
0.0445835 -0.0863067 -0.658387 3 3 0
0.0446053 -0.0859058 -0.658398 3 3 0
0.0446818 -0.0857463 -0.658456 3 3 0
0.0447058 -0.0856075 -0.658474 3 3 0
0.0447462 -0.0848562 -0.65843 3 3 0
0.0446578 -0.0844843 -0.658377 3 3 0
0.0447527 -0.0841785 -0.658443 3 3 0
0.0449714 -0.0826752 -0.659031 3 3 0
0.0449887 -0.0824976 -0.659039 3 3 0
0.0449411 -0.0823191 -0.659011 3 3 0
0.0449684 -0.0827554 -0.658353 3 3 0
0.0452948 -0.0829777 -0.6585 3 3 0
0.0453283 -0.0829084 -0.658514 3 3 0
0.0453614 -0.0826305 -0.658664 3 3 0
0.0454144 -0.0825434 -0.658677 3 3 0
0.0454391 -0.0824408 -0.658687 3 3 0
0.0454558 -0.0818108 -0.658879 3 3 0
0.0458932 -0.0819415 -0.65905 3 3 0
0.0459283 -0.0818447 -0.659062 3 3 0
0.0458734 -0.082284 -0.658951 3 3 0
0.0459666 -0.0823186 -0.658987 3 3 0
0.046003 -0.0823205 -0.659001 3 3 0
0.0460923 -0.0834918 -0.659583 3 3 0
0.0461844 -0.0833281 -0.659636 3 3 0
0.0462154 -0.083193 -0.659653 3 3 0
0.0463091 -0.0813933 -0.65936 3 3 0
0.0464855 -0.081336 -0.659425 3 3 0
0.0465206 -0.0812396 -0.659437 3 3 0
0.0465248 -0.0807705 -0.659451 3 3 0
0.0465799 -0.0806756 -0.659466 3 3 0
0.0466055 -0.0805689 -0.659474 3 3 0
0.0465875 -0.080892 -0.659329 3 3 0
0.0466587 -0.0808769 -0.659353 3 3 0
0.0466958 -0.0808512 -0.659365 3 3 0
0.0467772 -0.0815628 -0.659874 3 3 0
0.0468791 -0.0814029 -0.659918 3 3 0
0.0469133 -0.0812778 -0.659933 3 3 0
0.0469813 -0.0801059 -0.65954 3 3 0
0.0470339 -0.0800166 -0.659556 3 3 0
0.0470648 -0.079925 -0.659566 3 3 0
0.0470243 -0.0800403 -0.659547 3 3 0
0.0471185 -0.0800281 -0.659572 3 3 0
0.0471568 -0.0800051 -0.659584 3 3 0
0.0472719 -0.0803493 -0.660009 3 3 0
0.0473951 -0.0802057 -0.660045 3 3 0
0.0474327 -0.0800977 -0.660057 3 3 0
0.0474492 -0.0794185 -0.659774 3 3 0
0.0475296 -0.0793695 -0.659791 3 3 0
0.0475664 -0.0793138 -0.6598 3 3 0
0.04765 -0.0790662 -0.659786 3 3 0
0.0477713 -0.0789483 -0.659803 3 3 0
0.0478097 -0.0788561 -0.659812 3 3 0
0.0477919 -0.0788488 -0.659771 3 3 0
0.0478905 -0.0788103 -0.659806 3 3 0
0.0479321 -0.0787843 -0.659821 3 3 0
0.0480515 -0.079036 -0.660385 3 3 0
0.048178 -0.0788673 -0.66042 3 3 0
0.0482182 -0.0787569 -0.660433 3 3 0
0.0482012 -0.0783847 -0.660065 3 3 0
0.0483112 -0.078337 -0.660094 3 3 0
0.0483532 -0.0783087 -0.660106 3 3 0
0.0484775 -0.0785584 -0.660358 3 3 0
0.0486101 -0.0784574 -0.660374 3 3 0
0.0486532 -0.0783948 -0.660381 3 3 0
0.0487102 -0.0779155 -0.660288 3 3 0
0.0487596 -0.0778418 -0.660295 3 3 0
0.0488018 -0.0777736 -0.660301 3 3 0
0.0488545 -0.0773415 -0.660422 3 3 0
0.048902 -0.0772605 -0.66043 3 3 0
0.0489437 -0.0771848 -0.660436 3 3 0
0.0489864 -0.076941 -0.660395 3 3 0
0.0490287 -0.0768673 -0.660401 3 3 0
0.0490712 -0.0767955 -0.660407 3 3 0
0.0491225 -0.0766673 -0.660585 3 3 0
0.0491695 -0.0765862 -0.660592 3 3 0
0.0492121 -0.07651 -0.660598 3 3 0
0.0492531 -0.0764058 -0.660473 3 3 0
0.0492971 -0.0763363 -0.660478 3 3 0
0.049341 -0.0762689 -0.660483 3 3 0
0.0493994 -0.0761113 -0.660777 3 3 0
0.0494543 -0.0760241 -0.660786 3 3 0
0.0494979 -0.0759468 -0.660793 3 3 0
0.0495285 -0.0759615 -0.660414 3 3 0
0.049584 -0.0758968 -0.660419 4 3 0
0.0496294 -0.0758403 -0.660423 3 3 0
0.0497006 -0.0757311 -0.660919 3 3 0
0.0497713 -0.075636 -0.66093 3 3 0
0.0498167 -0.0755615 -0.660937 3 3 0
0.0498476 -0.0755247 -0.660479 3 3 0
0.0499068 -0.0754592 -0.660484 3 3 0
0.0499536 -0.0754047 -0.660489 3 3 0
0.0500294 -0.0751396 -0.661077 3 3 0
0.0501076 -0.0750331 -0.661089 3 3 0
0.0501545 -0.0749561 -0.661097 3 3 0
0.0501837 -0.0749829 -0.660573 3 3 0
0.0502496 -0.0749113 -0.66058 3 3 0
0.0502978 -0.0748569 -0.660586 3 3 0
0.0503748 -0.0746453 -0.661155 3 3 0
0.0504541 -0.0745387 -0.661167 3 3 0
0.0505025 -0.0744646 -0.661175 3 3 0
0.0505406 -0.074433 -0.660789 3 3 0
0.0505981 -0.0743654 -0.660795 3 3 0
0.0506473 -0.0743073 -0.660801 3 3 0
0.0507148 -0.0741494 -0.661167 3 3 0
