0.0321452 0.01 0.01 2 5 1
0.0272337 0.00798559 0.00798559 2 5 1
0.02496 0.00711637 0.00711637 2 5 1
0.0227952 0.00632539 0.00632539 2 5 1
0.0206301 0.00553433 0.00553433 2 5 1
0.0186663 0.00488235 0.00488235 2 5 1
0.0167854 0.00428401 0.00428401 2 5 1
0.0149826 0.00373404 0.00373404 2 5 1
0.0132513 0.0032272 0.0032272 2 5 1
0.011586 0.00275901 0.00275901 2 5 1
0.00998172 0.00232554 0.00232554 2 5 1
0.00843388 0.00192329 0.00192329 2 5 1
0.00693829 0.00154921 0.00154921 2 5 1
0.0054911 0.00120053 0.00120053 2 5 1
0.00408883 0.00087483 0.00087483 2 5 1
0.00272827 0.000569942 0.000569942 2 5 1
0.00140654 0.000283935 0.000283935 2 5 1
0.000121282 1.51447e-05 1.51447e-05 2 5 1
-0.00110614 -0.000233081 -0.000233081 2 5 1
-0.00236791 -0.000480659 -0.000480659 2 5 1
-0.00354796 -0.000704505 -0.000704505 2 5 1
-0.00471124 -0.000918775 -0.000918775 2 5 1
-0.00585163 -0.00112284 -0.00112284 2 5 1
-0.00696817 -0.00131713 -0.00131713 2 5 1
-0.00806273 -0.00150255 -0.00150255 2 5 1
-0.00913684 -0.00167992 -0.00167992 2 5 1
-0.0101919 -0.00184997 -0.00184997 2 5 1
-0.0112291 -0.00201335 -0.00201335 2 5 1
-0.0122496 -0.0021707 -0.0021707 2 5 1
-0.0132547 -0.00232257 -0.00232257 2 5 1
-0.0142454 -0.00246949 -0.00246949 2 5 1
-0.0152226 -0.00261196 -0.00261196 2 5 1
-0.0161872 -0.00275044 -0.00275044 2 5 1
-0.0171402 -0.00288534 -0.00288534 2 5 1
-0.0180823 -0.00301708 -0.00301708 2 5 1
-0.0190144 -0.00314602 -0.00314602 2 5 1
-0.0199372 -0.00327254 -0.00327254 2 5 1
-0.0208514 -0.00339695 -0.00339695 2 5 1
-0.0217576 -0.00351959 -0.00351959 2 5 1
-0.0226565 -0.00364075 -0.00364075 2 5 1
-0.0235487 -0.00376074 -0.00376074 2 5 1
-0.0244348 -0.00387982 -0.00387982 2 5 1
-0.0253153 -0.00399828 -0.00399828 2 5 1
-0.0261907 -0.00411636 -0.00411636 2 5 1
-0.0270617 -0.00423433 -0.00423433 2 5 1
-0.0279286 -0.00435242 -0.00435242 2 5 1
-0.028792 -0.00447089 -0.00447089 2 5 1
-0.0296523 -0.00458995 -0.00458995 2 5 1
-0.03051 -0.00470986 -0.00470986 2 5 1
-0.0313655 -0.00483082 -0.00483082 2 5 1
-0.0322193 -0.00495308 -0.00495308 2 5 1
-0.0330718 -0.00507685 -0.00507685 2 5 1
-0.0339235 -0.00520237 -0.00520237 2 5 1
-0.0347747 -0.00532985 -0.00532985 2 5 1
-0.0356259 -0.00545952 -0.00545952 2 5 1
-0.0364775 -0.00559162 -0.00559162 2 5 1
-0.03733 -0.00572637 -0.00572637 2 5 1
-0.0381837 -0.00586402 -0.00586402 2 5 1
-0.0390391 -0.00600479 -0.00600479 2 5 1
-0.0398966 -0.00614894 -0.00614894 2 5 1
-0.0407567 -0.00629672 -0.00629672 2 5 1
-0.0416198 -0.00644839 -0.00644839 2 5 1
-0.0424864 -0.00660421 -0.00660421 2 5 1
-0.043357 -0.00676447 -0.00676447 2 5 1
-0.044232 -0.00692945 -0.00692945 2 5 1
-0.045112 -0.00709946 -0.00709946 2 5 1
-0.0459974 -0.00727481 -0.00727481 2 5 1
-0.0468889 -0.00745583 -0.00745583 2 5 1
-0.047787 -0.00764287 -0.00764287 2 5 1
-0.0486924 -0.0078363 -0.0078363 2 5 1
-0.0496055 -0.00803651 -0.00803651 2 5 1
-0.0505272 -0.0082439 -0.0082439 2 5 1
-0.051458 -0.00845891 -0.00845891 2 5 1
-0.0523987 -0.00868201 -0.00868201 2 5 1
-0.0533502 -0.00891369 -0.00891369 2 5 1
-0.0543131 -0.00915449 -0.00915449 2 5 1
-0.0552884 -0.00940498 -0.00940498 2 5 1
-0.0562769 -0.00966576 -0.00966576 2 5 1
-0.0572797 -0.0099375 -0.0099375 2 5 1
-0.0582978 -0.0102209 -0.0102209 2 5 1
-0.0593324 -0.0105168 -0.0105168 2 5 1
-0.0603845 -0.0108259 -0.0108259 2 5 1
-0.0614555 -0.0111492 -0.0111492 2 5 1
-0.0625467 -0.0114876 -0.0114876 2 5 1
-0.0636596 -0.0118423 -0.0118423 2 5 1
-0.0647958 -0.0122145 -0.0122145 2 5 1
-0.0659569 -0.0126053 -0.0126053 2 5 1
-0.0671448 -0.0130161 -0.0130161 2 5 1
-0.0683615 -0.0134487 -0.0134487 2 5 1
-0.0696091 -0.0139045 -0.0139045 2 5 1
-0.0708898 -0.0143856 -0.0143856 2 5 1
-0.0722062 -0.014894 -0.014894 2 5 1
-0.073561 -0.0154319 -0.0154319 2 5 1
-0.0749571 -0.0160019 -0.0160019 2 5 1
-0.0763977 -0.0166068 -0.0166068 2 5 1
-0.0778862 -0.0172497 -0.0172497 2 5 1
-0.0794266 -0.0179341 -0.0179341 2 5 1
-0.0810228 -0.018664 -0.018664 2 5 1
-0.0826793 -0.0194436 -0.0194436 2 5 1
-0.0844012 -0.0202779 -0.0202779 2 5 1
-0.0861937 -0.0211724 -0.0211724 2 5 1
-0.0880626 -0.022133 -0.022133 2 5 1
-0.0900144 -0.0231669 -0.0231669 2 5 1
-0.092056 -0.0242818 -0.0242818 2 5 1
-0.094195 -0.0254864 -0.0254864 2 5 1
-0.0964395 -0.0267906 -0.0267906 2 5 1
-0.0989135 -0.0283174 -0.0283174 2 5 1
-0.101405 -0.0298679 -0.0298679 2 5 1
-0.104032 -0.031557 -0.031557 2 5 1
-0.106804 -0.0334002 -0.0334002 2 5 1
-0.109731 -0.035415 -0.035415 2 5 1
-0.112826 -0.0376201 -0.0376201 2 5 1
-0.116098 -0.0400361 -0.0400361 2 5 1
-0.119558 -0.0426845 -0.0426845 2 5 1
-0.123214 -0.0455879 -0.0455879 2 5 1
-0.127073 -0.0487685 -0.0487685 2 5 1
-0.131138 -0.052248 -0.052248 2 5 1
-0.135408 -0.0560457 -0.0560457 2 5 1
-0.139879 -0.0601775 -0.0601775 2 5 1
-0.14454 -0.0646546 -0.0646546 2 5 1
-0.149376 -0.069482 -0.069482 2 5 1
-0.154367 -0.0746588 -0.0746588 2 5 1
-0.15949 -0.080177 -0.080177 2 5 1
-0.164605 -0.0856869 -0.0856869 2 5 1
-0.169953 -0.0918775 -0.0918775 2 5 1
-0.175347 -0.0983519 -0.0983519 2 5 1
-0.180769 -0.105094 -0.105094 2 5 1
-0.186197 -0.112077 -0.112077 2 5 1
-0.191612 -0.119278 -0.119278 2 5 1
-0.197001 -0.126673 -0.126673 2 5 1
-0.202351 -0.134243 -0.134243 2 5 1
-0.207654 -0.141968 -0.141968 2 5 1
-0.212902 -0.149833 -0.149833 2 5 1
-0.218091 -0.157822 -0.157822 2 5 1
-0.223217 -0.165924 -0.165924 2 5 1
-0.22828 -0.174127 -0.174127 2 5 1
-0.233277 -0.182421 -0.182421 2 5 1
-0.238208 -0.190798 -0.190798 2 5 1
-0.243074 -0.199251 -0.199251 2 5 1
-0.247874 -0.207773 -0.207773 2 5 1
-0.252611 -0.216359 -0.216359 2 5 1
-0.257284 -0.225002 -0.225002 2 5 1
-0.261896 -0.2337 -0.2337 2 5 1
-0.266447 -0.242446 -0.242446 2 5 1
-0.27094 -0.251239 -0.251239 2 5 1
-0.275375 -0.260074 -0.260074 2 5 1
-0.279754 -0.26895 -0.26895 2 5 1
-0.284078 -0.277862 -0.277862 2 5 1
-0.28835 -0.286809 -0.286809 2 5 1
-0.292571 -0.295789 -0.295789 2 5 1
-0.296741 -0.304799 -0.304799 2 5 1
-0.300863 -0.313838 -0.313838 2 5 1
0.0321452 0.01 0.01 2 5 1
0.0376219 0.0124706 0.0124706 2 5 1
0.0405995 0.0139148 0.0139148 2 5 1
0.0437547 0.0155236 0.0155236 2 5 1
0.0471008 0.0173186 0.0173186 2 5 1
0.0506505 0.0193235 0.0193235 2 5 1
0.054416 0.0215643 0.0215643 2 5 1
0.0584072 0.0240683 0.0240683 2 5 1
0.0626311 0.0268634 0.0268634 2 5 1
0.0670907 0.0299772 0.0299772 2 5 1
0.0717831 0.0334346 0.0334346 2 5 1
0.0766992 0.0372568 0.0372568 2 5 1
0.0818226 0.0414586 0.0414586 2 5 1
0.0871308 0.0460475 0.0460475 2 5 1
0.0925949 0.0510223 0.0510223 2 5 1
0.0981827 0.0563736 0.0563736 2 5 1
0.103861 0.0620849 0.0620849 2 5 1
0.109595 0.068134 0.068134 2 5 1
0.115357 0.0744953 0.0744953 2 5 1
0.121118 0.0811416 0.0811416 2 5 1
0.126857 0.0880454 0.0880454 2 5 1
0.132555 0.0951809 0.0951809 2 5 1
0.138198 0.102523 0.102523 2 5 1
0.143776 0.110051 0.110051 2 5 1
0.149282 0.117743 0.117743 2 5 1
0.154785 0.125433 0.125433 2 5 1
0.16014 0.133427 0.133427 2 5 1
0.165409 0.141534 0.141534 2 5 1
0.170593 0.149745 0.149745 2 5 1
0.175694 0.158051 0.158051 2 5 1
0.180713 0.166442 0.166442 2 5 1
0.185652 0.174911 0.174911 2 5 1
0.190512 0.183451 0.183451 2 5 1
0.195296 0.192057 0.192057 2 5 1
0.200005 0.200722 0.200722 2 5 1
0.204643 0.209442 0.209442 2 5 1
0.209212 0.218213 0.218213 2 5 1
0.213713 0.22703 0.22703 2 5 1
0.218149 0.235892 0.235892 2 5 1
0.222522 0.244794 0.244794 2 5 1
0.226834 0.253734 0.253734 2 5 1
0.231088 0.26271 0.26271 2 5 1
0.235284 0.271719 0.271719 2 5 1
0.239426 0.280758 0.280758 2 5 1
0.243515 0.289828 0.289828 2 5 1
0.247552 0.298924 0.298924 2 5 1
0.251539 0.308047 0.308047 2 5 1
0.255478 0.317195 0.317195 2 5 1
0.259371 0.326365 0.326365 2 5 1
0.263218 0.335558 0.335558 2 5 1
0.267021 0.344772 0.344772 2 5 1
0.270782 0.354005 0.354005 2 5 1
0.274501 0.363258 0.363258 2 5 1
0.278181 0.372528 0.372528 2 5 1
0.281821 0.381816 0.381816 2 5 1
0.285424 0.39112 0.39112 2 5 1
0.28899 0.40044 0.40044 2 5 1
0.292521 0.409775 0.409775 2 5 1
0.296016 0.419124 0.419124 2 5 1
0.299478 0.428487 0.428487 2 5 1
0.302907 0.437863 0.437863 2 5 1
