0.0570775 -0.07 -0.07 2 3 1
0.0444386 -0.0544997 -0.0544997 2 3 1
0.0381192 -0.0467495 -0.0467495 2 3 1
0.0317998 -0.0389994 -0.0389994 2 3 1
0.0254804 -0.0312492 -0.0312492 2 3 1
0.019161 -0.023499 -0.023499 2 3 1
0.0128415 -0.0157489 -0.0157489 2 3 1
0.00652211 -0.00799873 -0.00799873 2 3 1
0.000202688 -0.000248577 -0.000248577 2 3 1
-0.00611673 0.00750158 0.00750158 2 3 1
-0.0124362 0.0152517 0.0152517 2 3 1
-0.0187556 0.0230019 0.0230019 2 3 1
-0.025075 0.0307521 0.0307521 2 3 1
-0.0313944 0.0385022 0.0385022 2 3 1
-0.0377138 0.0462524 0.0462524 2 3 1
-0.0440333 0.0540025 0.0540025 2 3 1
-0.0503527 0.0617527 0.0617527 2 3 1
-0.0566721 0.0695028 0.0695028 2 3 1
-0.0629915 0.077253 0.077253 2 3 1
-0.0693109 0.0850032 0.0850032 2 3 1
-0.0756304 0.0927533 0.0927533 2 3 1
-0.0819498 0.100503 0.100503 2 3 1
-0.0882692 0.108254 0.108254 2 3 1
-0.0945886 0.116004 0.116004 2 3 1
-0.100908 0.123754 0.123754 2 3 1
-0.107227 0.131504 0.131504 2 3 1
-0.113547 0.139254 0.139254 2 3 1
-0.119866 0.147004 0.147004 2 3 1
-0.126186 0.154755 0.154755 2 3 1
-0.132505 0.162505 0.162505 2 3 1
-0.138825 0.170255 0.170255 2 3 1
-0.145144 0.178005 0.178005 2 3 1
-0.151463 0.185755 0.185755 2 3 1
-0.157783 0.193505 0.193505 2 3 1
-0.164102 0.201256 0.201256 2 3 1
-0.170422 0.209006 0.209006 2 3 1
-0.176741 0.216756 0.216756 2 3 1
-0.183061 0.224506 0.224506 2 3 1
-0.18938 0.232256 0.232256 2 3 1
-0.195699 0.240006 0.240006 2 3 1
-0.202019 0.247756 0.247756 2 3 1
-0.208338 0.255507 0.255507 2 3 1
-0.214658 0.263257 0.263257 2 3 1
-0.220977 0.271007 0.271007 2 3 1
-0.227296 0.278757 0.278757 2 3 1
-0.233616 0.286507 0.286507 2 3 1
-0.239935 0.294257 0.294257 2 3 1
-0.246255 0.302008 0.302008 2 3 1
-0.252574 0.309758 0.309758 2 3 1
-0.258894 0.317508 0.317508 2 3 1
-0.265213 0.325258 0.325258 2 3 1
-0.271532 0.333008 0.333008 2 3 1
-0.277852 0.340758 0.340758 2 3 1
-0.284171 0.348508 0.348508 2 3 1
-0.290491 0.356259 0.356259 2 3 1
-0.29681 0.364009 0.364009 2 3 1
-0.30313 0.371759 0.371759 2 3 1
0.0570775 -0.07 -0.07 2 3 1
0.0444386 -0.0544997 -0.0544997 2 3 1
0.0381192 -0.0467495 -0.0467495 2 3 1
0.0317998 -0.0389994 -0.0389994 2 3 1
0.0254804 -0.0312492 -0.0312492 2 3 1
0.019161 -0.023499 -0.023499 2 3 1
0.0128415 -0.0157489 -0.0157489 2 3 1
0.00652211 -0.00799873 -0.00799873 2 3 1
0.000202688 -0.000248577 -0.000248577 2 3 1
-0.00611673 0.00750158 0.00750158 2 3 1
-0.0124362 0.0152517 0.0152517 2 3 1
-0.0187556 0.0230019 0.0230019 2 3 1
-0.025075 0.0307521 0.0307521 2 3 1
-0.0313944 0.0385022 0.0385022 2 3 1
-0.0377138 0.0462524 0.0462524 2 3 1
-0.0440333 0.0540025 0.0540025 2 3 1
-0.0503527 0.0617527 0.0617527 2 3 1
-0.0566721 0.0695028 0.0695028 2 3 1
-0.0629915 0.077253 0.077253 2 3 1
-0.0693109 0.0850032 0.0850032 2 3 1
-0.0756304 0.0927533 0.0927533 2 3 1
-0.0819498 0.100503 0.100503 2 3 1
-0.0882692 0.108254 0.108254 2 3 1
-0.0945886 0.116004 0.116004 2 3 1
-0.100908 0.123754 0.123754 2 3 1
-0.107227 0.131504 0.131504 2 3 1
-0.113547 0.139254 0.139254 2 3 1
-0.119866 0.147004 0.147004 2 3 1
-0.126186 0.154755 0.154755 2 3 1
-0.132505 0.162505 0.162505 2 3 1
-0.138825 0.170255 0.170255 2 3 1
-0.145144 0.178005 0.178005 2 3 1
-0.151463 0.185755 0.185755 2 3 1
-0.157783 0.193505 0.193505 2 3 1
-0.164102 0.201256 0.201256 2 3 1
-0.170422 0.209006 0.209006 2 3 1
-0.176741 0.216756 0.216756 2 3 1
-0.183061 0.224506 0.224506 2 3 1
-0.18938 0.232256 0.232256 2 3 1
-0.195699 0.240006 0.240006 2 3 1
-0.202019 0.247756 0.247756 2 3 1
-0.208338 0.255507 0.255507 2 3 1
-0.214658 0.263257 0.263257 2 3 1
-0.220977 0.271007 0.271007 2 3 1
-0.227296 0.278757 0.278757 2 3 1
-0.233616 0.286507 0.286507 2 3 1
-0.239935 0.294257 0.294257 2 3 1
-0.246255 0.302008 0.302008 2 3 1
-0.252574 0.309758 0.309758 2 3 1
-0.258894 0.317508 0.317508 2 3 1
-0.265213 0.325258 0.325258 2 3 1
-0.271532 0.333008 0.333008 2 3 1
-0.277852 0.340758 0.340758 2 3 1
-0.284171 0.348508 0.348508 2 3 1
-0.290491 0.356259 0.356259 2 3 1
-0.29681 0.364009 0.364009 2 3 1
-0.30313 0.371759 0.371759 2 3 1
0.0570775 -0.07 -0.07 2 3 1
0.0697163 -0.0855003 -0.0855003 2 3 1
0.0760358 -0.0932505 -0.0932505 2 3 1
0.0823552 -0.101001 -0.101001 2 3 1
0.0886746 -0.108751 -0.108751 2 3 1
0.094994 -0.116501 -0.116501 2 3 1
0.101313 -0.124251 -0.124251 2 3 1
0.107633 -0.132001 -0.132001 2 3 1
0.113952 -0.139751 -0.139751 2 3 1
0.120272 -0.147502 -0.147502 2 3 1
0.126591 -0.155252 -0.155252 2 3 1
0.132911 -0.163002 -0.163002 2 3 1
0.13923 -0.170752 -0.170752 2 3 1
0.145549 -0.178502 -0.178502 2 3 1
0.151869 -0.186252 -0.186252 2 3 1
0.158188 -0.194003 -0.194003 2 3 1
0.164508 -0.201753 -0.201753 2 3 1
0.170827 -0.209503 -0.209503 2 3 1
0.177146 -0.217253 -0.217253 2 3 1
0.183466 -0.225003 -0.225003 2 3 1
0.189785 -0.232753 -0.232753 2 3 1
0.196105 -0.240503 -0.240503 2 3 1
0.202424 -0.248254 -0.248254 2 3 1
0.208744 -0.256004 -0.256004 2 3 1
0.215063 -0.263754 -0.263754 2 3 1
0.221382 -0.271504 -0.271504 2 3 1
0.227702 -0.279254 -0.279254 2 3 1
0.234021 -0.287004 -0.287004 2 3 1
0.240341 -0.294755 -0.294755 2 3 1
0.24666 -0.302505 -0.302505 2 3 1
0.25298 -0.310255 -0.310255 2 3 1
0.259299 -0.318005 -0.318005 2 3 1
0.265618 -0.325755 -0.325755 2 3 1
0.271938 -0.333505 -0.333505 2 3 1
0.278257 -0.341256 -0.341256 2 3 1
0.284577 -0.349006 -0.349006 2 3 1
0.290896 -0.356756 -0.356756 2 3 1
0.297215 -0.364506 -0.364506 2 3 1
0.303535 -0.372256 -0.372256 2 3 1
0.0392021 -0.07 -0.07 2 9 1
0.0489746 -0.0874499 -0.0874499 2 9 1
0.0538608 -0.0961749 -0.0961749 2 9 1
0.0587471 -0.1049 -0.1049 2 9 1
0.0636333 -0.113625 -0.113625 2 9 1
0.0685195 -0.12235 -0.12235 2 9 1
0.0734058 -0.131075 -0.131075 2 9 1
0.078292 -0.1398 -0.1398 2 9 1
0.0831782 -0.148525 -0.148525 2 9 1
0.0880645 -0.157249 -0.157249 2 9 1
0.0929507 -0.165974 -0.165974 2 9 1
0.0978369 -0.174699 -0.174699 2 9 1
0.102723 -0.183424 -0.183424 2 9 1
0.107609 -0.192149 -0.192149 2 9 1
0.112496 -0.200874 -0.200874 2 9 1
0.117382 -0.209599 -0.209599 2 9 1
0.122268 -0.218324 -0.218324 2 9 1
0.127154 -0.227049 -0.227049 2 9 1
0.132041 -0.235774 -0.235774 2 9 1
0.136927 -0.244499 -0.244499 2 9 1
0.141813 -0.253224 -0.253224 2 9 1
0.146699 -0.261949 -0.261949 2 9 1
0.151586 -0.270674 -0.270674 2 9 1
0.156472 -0.279399 -0.279399 2 9 1
0.161358 -0.288124 -0.288124 2 9 1
0.166244 -0.296849 -0.296849 2 9 1
0.17113 -0.305574 -0.305574 2 9 1
0.176017 -0.314299 -0.314299 2 9 1
0.180903 -0.323024 -0.323024 2 9 1
0.185789 -0.331748 -0.331748 2 9 1
0.190675 -0.340473 -0.340473 2 9 1
0.195562 -0.349198 -0.349198 2 9 1
0.200448 -0.357923 -0.357923 2 9 1
0.205334 -0.366648 -0.366648 2 9 1
0.21022 -0.375373 -0.375373 2 9 1
0.215107 -0.384098 -0.384098 2 9 1
0.219993 -0.392823 -0.392823 2 9 1
0.224879 -0.401548 -0.401548 2 9 1
0.229765 -0.410273 -0.410273 2 9 1
0.234652 -0.418998 -0.418998 2 9 1
0.239538 -0.427723 -0.427723 2 9 1
0.244424 -0.436448 -0.436448 2 9 1
0.24931 -0.445173 -0.445173 2 9 1
0.254196 -0.453898 -0.453898 2 9 1
0.259083 -0.462623 -0.462623 2 9 1
0.263969 -0.471348 -0.471348 2 9 1
0.268855 -0.480073 -0.480073 2 9 1
0.273741 -0.488798 -0.488798 2 9 1
0.278628 -0.497522 -0.497522 2 9 1
0.283514 -0.506247 -0.506247 2 9 1
0.2884 -0.514972 -0.514972 2 9 1
0.293286 -0.523697 -0.523697 2 9 1
0.298173 -0.532422 -0.532422 2 9 1
0.303059 -0.541147 -0.541147 2 9 1
0.0392021 -0.07 -0.07 2 9 1
0.0294296 -0.0525501 -0.0525501 2 9 1
0.0245434 -0.0438251 -0.0438251 2 9 1
0.0196572 -0.0351002 -0.0351002 2 9 1
0.0147709 -0.0263753 -0.0263753 2 9 1
0.0098847 -0.0176503 -0.0176503 2 9 1
0.00499847 -0.00892535 -0.00892535 2 9 1
0.000112233 -0.000200406 -0.000200406 2 9 1
-0.004774 0.00852454 0.00852454 2 9 1
-0.00966024 0.0172495 0.0172495 2 9 1
-0.0145465 0.0259744 0.0259744 2 9 1
-0.0194327 0.0346994 0.0346994 2 9 1
-0.0243189 0.0434243 0.0434243 2 9 1
-0.0292052 0.0521493 0.0521493 2 9 1
-0.0340914 0.0608742 0.0608742 2 9 1
-0.0389776 0.0695992 0.0695992 2 9 1
-0.0438639 0.0783241 0.0783241 2 9 1
-0.0487501 0.0870491 0.0870491 2 9 1
-0.0536364 0.095774 0.095774 2 9 1
-0.0585226 0.104499 0.104499 2 9 1
-0.0634088 0.113224 0.113224 2 9 1
-0.0682951 0.121949 0.121949 2 9 1
-0.0731813 0.130674 0.130674 2 9 1
-0.0780675 0.139399 0.139399 2 9 1
-0.0829538 0.148124 0.148124 2 9 1
-0.08784 0.156849 0.156849 2 9 1
-0.0927262 0.165574 0.165574 2 9 1
-0.0976125 0.174299 0.174299 2 9 1
-0.102499 0.183024 0.183024 2 9 1
-0.107385 0.191748 0.191748 2 9 1
-0.112271 0.200473 0.200473 2 9 1
-0.117157 0.209198 0.209198 2 9 1
-0.122044 0.217923 0.217923 2 9 1
-0.12693 0.226648 0.226648 2 9 1
-0.131816 0.235373 0.235373 2 9 1
-0.136702 0.244098 0.244098 2 9 1
-0.141589 0.252823 0.252823 2 9 1
-0.146475 0.261548 0.261548 2 9 1
-0.151361 0.270273 0.270273 2 9 1
-0.156247 0.278998 0.278998 2 9 1
-0.161134 0.287723 0.287723 2 9 1
-0.16602 0.296448 0.296448 2 9 1
-0.170906 0.305173 0.305173 2 9 1
-0.175792 0.313898 0.313898 2 9 1
-0.180678 0.322623 0.322623 2 9 1
-0.185565 0.331348 0.331348 2 9 1
-0.190451 0.340073 0.340073 2 9 1
-0.195337 0.348798 0.348798 2 9 1
-0.200223 0.357522 0.357522 2 9 1
-0.20511 0.366247 0.366247 2 9 1
-0.209996 0.374972 0.374972 2 9 1
-0.214882 0.383697 0.383697 2 9 1
-0.219768 0.392422 0.392422 2 9 1
-0.224655 0.401147 0.401147 2 9 1
-0.229541 0.409872 0.409872 2 9 1
-0.234427 0.418597 0.418597 2 9 1
-0.239313 0.427322 0.427322 2 9 1
-0.2442 0.436047 0.436047 2 9 1
-0.249086 0.444772 0.444772 2 9 1
-0.253972 0.453497 0.453497 2 9 1
-0.258858 0.462222 0.462222 2 9 1
-0.263744 0.470947 0.470947 2 9 1
-0.268631 0.479672 0.479672 2 9 1
-0.273517 0.488397 0.488397 2 9 1
-0.278403 0.497122 0.497122 2 9 1
-0.283289 0.505847 0.505847 2 9 1
-0.288176 0.514572 0.514572 2 9 1
-0.293062 0.523297 0.523297 2 9 1
-0.297948 0.532021 0.532021 2 9 1
-0.302834 0.540746 0.540746 2 9 1
