0.0987028 -0.1 -0.1 2 12 1
0.0973155 -0.101439 -0.101439 2 12 1
0.0959434 -0.102892 -0.102892 2 12 1
0.0945969 -0.10437 -0.10437 2 12 1
0.0932761 -0.105871 -0.105871 2 12 1
0.0919764 -0.10739 -0.10739 2 12 1
0.0906978 -0.108927 -0.108927 2 12 1
0.0894404 -0.110482 -0.110482 2 12 1
0.0882042 -0.112053 -0.112053 2 12 1
0.0869893 -0.113641 -0.113641 2 12 1
0.0857955 -0.115245 -0.115245 2 12 1
0.084623 -0.116865 -0.116865 2 12 1
0.0834717 -0.1185 -0.1185 2 12 1
0.0823413 -0.120149 -0.120149 2 12 1
0.0812318 -0.121813 -0.121813 2 12 1
0.0801431 -0.12349 -0.12349 2 12 1
0.079075 -0.125181 -0.125181 2 12 1
0.0780272 -0.126884 -0.126884 2 12 1
0.0769997 -0.128599 -0.128599 2 12 1
0.075992 -0.130327 -0.130327 2 12 1
0.075004 -0.132065 -0.132065 2 12 1
0.0740354 -0.133815 -0.133815 2 12 1
0.073086 -0.135575 -0.135575 2 12 1
0.0721554 -0.137345 -0.137345 2 12 1
0.0712433 -0.139124 -0.139124 2 12 1
0.0703494 -0.140913 -0.140913 2 12 1
0.0694735 -0.142711 -0.142711 2 12 1
0.0686151 -0.144517 -0.144517 2 12 1
0.0677739 -0.146331 -0.146331 2 12 1
0.0669497 -0.148153 -0.148153 2 12 1
0.066142 -0.149983 -0.149983 2 12 1
0.0653506 -0.151819 -0.151819 2 12 1
0.0645751 -0.153663 -0.153663 2 12 1
0.0638151 -0.155513 -0.155513 2 12 1
0.0630704 -0.157369 -0.157369 2 12 1
0.0623405 -0.15923 -0.15923 2 12 1
0.0616252 -0.161098 -0.161098 2 12 1
0.0609242 -0.162971 -0.162971 2 12 1
0.060237 -0.164849 -0.164849 2 12 1
0.0595634 -0.166732 -0.166732 2 12 1
0.0589031 -0.16862 -0.16862 2 12 1
0.0582558 -0.170512 -0.170512 2 12 1
0.0576211 -0.172408 -0.172408 2 12 1
0.0569988 -0.174309 -0.174309 2 12 1
0.0563885 -0.176213 -0.176213 2 12 1
0.05579 -0.178122 -0.178122 2 12 1
0.055203 -0.180033 -0.180033 2 12 1
0.0546272 -0.181949 -0.181949 2 12 1
0.0540623 -0.183867 -0.183867 2 12 1
0.0535081 -0.185789 -0.185789 2 12 1
0.0529644 -0.187713 -0.187713 2 12 1
0.0524307 -0.189641 -0.189641 2 12 1
0.051907 -0.191571 -0.191571 2 12 1
0.051393 -0.193503 -0.193503 2 12 1
0.0508884 -0.195439 -0.195439 2 12 1
0.050393 -0.197376 -0.197376 2 12 1
0.0499066 -0.199316 -0.199316 2 12 1
0.0494289 -0.201258 -0.201258 2 12 1
0.0489598 -0.203202 -0.203202 2 12 1
0.0484991 -0.205148 -0.205148 2 12 1
0.0480465 -0.207096 -0.207096 2 12 1
0.0476019 -0.209046 -0.209046 2 12 1
0.047165 -0.210998 -0.210998 2 12 1
0.0467357 -0.212951 -0.212951 2 12 1
0.0463138 -0.214906 -0.214906 2 12 1
0.0458991 -0.216862 -0.216862 2 12 1
0.0454915 -0.21882 -0.21882 2 12 1
0.0450908 -0.22078 -0.22078 2 12 1
0.0446968 -0.222741 -0.222741 2 12 1
0.0443093 -0.224703 -0.224703 2 12 1
0.0439283 -0.226666 -0.226666 2 12 1
0.0435536 -0.22863 -0.22863 2 12 1
0.0431849 -0.230596 -0.230596 2 12 1
0.0428223 -0.232563 -0.232563 2 12 1
0.0424655 -0.234531 -0.234531 2 12 1
0.0421144 -0.2365 -0.2365 2 12 1
0.0417689 -0.238469 -0.238469 2 12 1
0.0414288 -0.24044 -0.24044 2 12 1
0.0410941 -0.242412 -0.242412 2 12 1
0.0407646 -0.244385 -0.244385 2 12 1
0.0404402 -0.246358 -0.246358 2 12 1
0.0401208 -0.248332 -0.248332 2 12 1
0.0398063 -0.250307 -0.250307 2 12 1
0.0394966 -0.252283 -0.252283 2 12 1
0.0391915 -0.25426 -0.25426 2 12 1
0.038891 -0.256237 -0.256237 2 12 1
0.038595 -0.258215 -0.258215 2 12 1
0.0383033 -0.260194 -0.260194 2 12 1
0.038016 -0.262173 -0.262173 2 12 1
0.0377328 -0.264153 -0.264153 2 12 1
0.0374537 -0.266133 -0.266133 2 12 1
0.0371787 -0.268114 -0.268114 2 12 1
0.0369075 -0.270095 -0.270095 2 12 1
0.0366403 -0.272077 -0.272077 2 12 1
0.0363768 -0.27406 -0.27406 2 12 1
0.036117 -0.276043 -0.276043 2 12 1
0.0358608 -0.278027 -0.278027 2 12 1
0.0356082 -0.28001 -0.28001 2 12 1
0.0353591 -0.281995 -0.281995 2 12 1
0.0351134 -0.28398 -0.28398 2 12 1
0.034871 -0.285965 -0.285965 2 12 1
0.0346319 -0.287951 -0.287951 2 12 1
0.034396 -0.289937 -0.289937 2 12 1
0.0341632 -0.291923 -0.291923 2 12 1
0.0339336 -0.29391 -0.29391 2 12 1
0.0337069 -0.295897 -0.295897 2 12 1
0.0334833 -0.297884 -0.297884 2 12 1
0.0332625 -0.299872 -0.299872 2 12 1
0.0330446 -0.30186 -0.30186 2 12 1
0.0328295 -0.303848 -0.303848 2 12 1
0.0326172 -0.305837 -0.305837 2 12 1
0.0324075 -0.307826 -0.307826 2 12 1
0.0322005 -0.309815 -0.309815 2 12 1
0.0319961 -0.311805 -0.311805 2 12 1
0.0317943 -0.313795 -0.313795 2 12 1
0.0315949 -0.315785 -0.315785 2 12 1
0.0313981 -0.317775 -0.317775 2 12 1
0.0312036 -0.319765 -0.319765 2 12 1
0.0310115 -0.321756 -0.321756 2 12 1
0.0308217 -0.323747 -0.323747 2 12 1
0.0306343 -0.325738 -0.325738 2 12 1
0.030449 -0.32773 -0.32773 2 12 1
0.030266 -0.329721 -0.329721 2 12 1
0.0300852 -0.331713 -0.331713 2 12 1
0.0299064 -0.333705 -0.333705 2 12 1
0.0297298 -0.335697 -0.335697 2 12 1
0.0295552 -0.337689 -0.337689 2 12 1
0.0293827 -0.339682 -0.339682 2 12 1
0.0292121 -0.341675 -0.341675 2 12 1
0.0290435 -0.343668 -0.343668 2 12 1
0.0288769 -0.345661 -0.345661 2 12 1
0.0287121 -0.347654 -0.347654 2 12 1
0.0285491 -0.349647 -0.349647 2 12 1
0.028388 -0.351641 -0.351641 2 12 1
0.0282287 -0.353634 -0.353634 2 12 1
0.0280712 -0.355628 -0.355628 2 12 1
0.0279153 -0.357622 -0.357622 2 12 1
0.0277612 -0.359616 -0.359616 2 12 1
0.0276088 -0.36161 -0.36161 2 12 1
0.0274581 -0.363604 -0.363604 2 12 1
0.0273089 -0.365599 -0.365599 2 12 1
0.0271614 -0.367593 -0.367593 2 12 1
0.0270154 -0.369588 -0.369588 2 12 1
0.026871 -0.371583 -0.371583 2 12 1
0.0267282 -0.373578 -0.373578 2 12 1
0.0265868 -0.375573 -0.375573 2 12 1
0.0264469 -0.377568 -0.377568 2 12 1
0.0263085 -0.379563 -0.379563 2 12 1
0.0261715 -0.381558 -0.381558 2 12 1
0.0260359 -0.383554 -0.383554 2 12 1
0.0259017 -0.385549 -0.385549 2 12 1
0.0257689 -0.387545 -0.387545 2 12 1
0.0256374 -0.38954 -0.38954 2 12 1
0.0255072 -0.391536 -0.391536 2 12 1
0.0253784 -0.393532 -0.393532 2 12 1
0.0252509 -0.395528 -0.395528 2 12 1
0.0251246 -0.397524 -0.397524 2 12 1
0.0249996 -0.39952 -0.39952 2 12 1
0.0248758 -0.401516 -0.401516 2 12 1
0.0247532 -0.403512 -0.403512 2 12 1
0.0246318 -0.405509 -0.405509 2 12 1
0.0245116 -0.407505 -0.407505 2 12 1
0.0243926 -0.409501 -0.409501 2 12 1
0.0242747 -0.411498 -0.411498 2 12 1
0.0241579 -0.413495 -0.413495 2 12 1
0.0240423 -0.415491 -0.415491 2 12 1
0.0239277 -0.417488 -0.417488 2 12 1
0.0238143 -0.419485 -0.419485 2 12 1
0.0237019 -0.421481 -0.421481 2 12 1
0.0235905 -0.423478 -0.423478 2 12 1
0.0234802 -0.425475 -0.425475 2 12 1
0.0233709 -0.427472 -0.427472 2 12 1
0.0232627 -0.429469 -0.429469 2 12 1
0.0231554 -0.431467 -0.431467 2 12 1
0.0230491 -0.433464 -0.433464 2 12 1
0.0229438 -0.435461 -0.435461 2 12 1
0.0228394 -0.437458 -0.437458 2 12 1
0.022736 -0.439455 -0.439455 2 12 1
0.0226335 -0.441453 -0.441453 2 12 1
0.0225319 -0.44345 -0.44345 2 12 1
0.0224312 -0.445448 -0.445448 2 12 1
0.0223314 -0.447445 -0.447445 2 12 1
0.0222325 -0.449443 -0.449443 2 12 1
0.0221345 -0.45144 -0.45144 2 12 1
0.0220373 -0.453438 -0.453438 2 12 1
0.021941 -0.455436 -0.455436 2 12 1
0.0218455 -0.457433 -0.457433 2 12 1
0.0217508 -0.459431 -0.459431 2 12 1
0.021657 -0.461429 -0.461429 2 12 1
0.021564 -0.463427 -0.463427 2 12 1
0.0214717 -0.465425 -0.465425 2 12 1
0.0213802 -0.467423 -0.467423 2 12 1
0.0212896 -0.46942 -0.46942 2 12 1
0.0211996 -0.471418 -0.471418 2 12 1
0.0211105 -0.473416 -0.473416 2 12 1
0.021022 -0.475414 -0.475414 2 12 1
0.0209343 -0.477413 -0.477413 2 12 1
0.0208474 -0.479411 -0.479411 2 12 1
0.0207611 -0.481409 -0.481409 2 12 1
0.0206756 -0.483407 -0.483407 2 12 1
0.0987028 -0.1 -0.1 2 12 1
0.1001 -0.0985711 -0.0985711 2 12 1
0.101513 -0.097157 -0.097157 2 12 1
0.10295 -0.0957679 -0.0957679 2 12 1
0.104412 -0.0944041 -0.0944041 2 12 1
0.105892 -0.0930611 -0.0930611 2 12 1
0.107392 -0.0917389 -0.0917389 2 12 1
0.108909 -0.0904378 -0.0904378 2 12 1
0.110444 -0.0891577 -0.0891577 2 12 1
0.111997 -0.0878989 -0.0878989 2 12 1
0.113566 -0.0866613 -0.0866613 2 12 1
0.115152 -0.085445 -0.085445 2 12 1
0.116754 -0.08425 -0.08425 2 12 1
0.118372 -0.0830762 -0.0830762 2 12 1
0.120004 -0.0819235 -0.0819235 2 12 1
0.121652 -0.0807919 -0.0807919 2 12 1
0.123313 -0.0796811 -0.0796811 2 12 1
0.124988 -0.0785912 -0.0785912 2 12 1
0.126676 -0.0775218 -0.0775218 2 12 1
0.128377 -0.0764728 -0.0764728 2 12 1
0.13009 -0.075444 -0.075444 2 12 1
0.131815 -0.0744351 -0.0744351 2 12 1
0.133551 -0.0734459 -0.0734459 2 12 1
0.135298 -0.0724761 -0.0724761 2 12 1
0.137055 -0.0715254 -0.0715254 2 12 1
0.138822 -0.0705935 -0.0705935 2 12 1
0.140599 -0.0696802 -0.0696802 2 12 1
0.142385 -0.0687851 -0.0687851 2 12 1
0.14418 -0.0679079 -0.0679079 2 12 1
0.145984 -0.0670483 -0.0670483 2 12 1
0.147795 -0.0662059 -0.0662059 2 12 1
0.149614 -0.0653804 -0.0653804 2 12 1
0.151441 -0.0645715 -0.0645715 2 12 1
0.153275 -0.0637788 -0.0637788 2 12 1
0.155115 -0.0630021 -0.0630021 2 12 1
0.156962 -0.0622408 -0.0622408 2 12 1
0.158815 -0.0614948 -0.0614948 2 12 1
0.160674 -0.0607637 -0.0607637 2 12 1
0.162538 -0.0600471 -0.0600471 2 12 1
0.164408 -0.0593447 -0.0593447 2 12 1
0.166283 -0.0586563 -0.0586563 2 12 1
0.168163 -0.0579814 -0.0579814 2 12 1
0.170048 -0.0573198 -0.0573198 2 12 1
0.171937 -0.0566711 -0.0566711 2 12 1
0.17383 -0.0560351 -0.0560351 2 12 1
0.175727 -0.0554114 -0.0554114 2 12 1
0.177629 -0.0547998 -0.0547998 2 12 1
0.179534 -0.0541999 -0.0541999 2 12 1
0.181442 -0.0536115 -0.0536115 2 12 1
0.183354 -0.0530343 -0.0530343 2 12 1
0.185269 -0.0524681 -0.0524681 2 12 1
0.187188 -0.0519125 -0.0519125 2 12 1
0.189109 -0.0513673 -0.0513673 2 12 1
0.191033 -0.0508322 -0.0508322 2 12 1
0.19296 -0.0503071 -0.0503071 2 12 1
0.194889 -0.0497916 -0.0497916 2 12 1
0.196821 -0.0492856 -0.0492856 2 12 1
0.198755 -0.0487888 -0.0487888 2 12 1
0.200692 -0.0483009 -0.0483009 2 12 1
0.20263 -0.0478218 -0.0478218 2 12 1
0.204571 -0.0473512 -0.0473512 2 12 1
0.206514 -0.046889 -0.046889 2 12 1
0.208459 -0.0464349 -0.0464349 2 12 1
0.210405 -0.0459888 -0.0459888 2 12 1
0.212353 -0.0455504 -0.0455504 2 12 1
0.214303 -0.0451196 -0.0451196 2 12 1
0.216255 -0.0446962 -0.0446962 2 12 1
0.218208 -0.04428 -0.04428 2 12 1
0.220162 -0.0438709 -0.0438709 2 12 1
0.222118 -0.0434686 -0.0434686 2 12 1
0.224075 -0.0430731 -0.0430731 2 12 1
0.226034 -0.0426841 -0.0426841 2 12 1
0.227994 -0.0423015 -0.0423015 2 12 1
0.229955 -0.0419252 -0.0419252 2 12 1
0.231917 -0.041555 -0.041555 2 12 1
0.23388 -0.0411907 -0.0411907 2 12 1
0.235844 -0.0408323 -0.0408323 2 12 1
0.23781 -0.0404797 -0.0404797 2 12 1
0.239776 -0.0401325 -0.0401325 2 12 1
0.241743 -0.0397909 -0.0397909 2 12 1
0.243711 -0.0394546 -0.0394546 2 12 1
0.24568 -0.0391235 -0.0391235 2 12 1
0.24765 -0.0387974 -0.0387974 2 12 1
0.249621 -0.0384764 -0.0384764 2 12 1
0.251593 -0.0381603 -0.0381603 2 12 1
0.253565 -0.0378489 -0.0378489 2 12 1
0.255538 -0.0375421 -0.0375421 2 12 1
0.257511 -0.03724 -0.03724 2 12 1
0.259486 -0.0369423 -0.0369423 2 12 1
0.261461 -0.036649 -0.036649 2 12 1
0.263436 -0.0363599 -0.0363599 2 12 1
0.265412 -0.0360751 -0.0360751 2 12 1
0.267389 -0.0357943 -0.0357943 2 12 1
0.269366 -0.0355175 -0.0355175 2 12 1
0.271344 -0.0352447 -0.0352447 2 12 1
0.273323 -0.0349757 -0.0349757 2 12 1
0.275301 -0.0347105 -0.0347105 2 12 1
0.277281 -0.034449 -0.034449 2 12 1
0.279261 -0.0341911 -0.0341911 2 12 1
0.281241 -0.0339368 -0.0339368 2 12 1
0.283222 -0.0336859 -0.0336859 2 12 1
0.285203 -0.0334384 -0.0334384 2 12 1
0.287184 -0.0331943 -0.0331943 2 12 1
0.289166 -0.0329534 -0.0329534 2 12 1
0.291148 -0.0327157 -0.0327157 2 12 1
0.293131 -0.0324812 -0.0324812 2 12 1
0.295114 -0.0322498 -0.0322498 2 12 1
0.297097 -0.0320213 -0.0320213 2 12 1
0.299081 -0.0317959 -0.0317959 2 12 1
0.301065 -0.0315733 -0.0315733 2 12 1
0.0206763 -0.483407 -0.483407 2 12 1
0.0205913 -0.485405 -0.485405 2 12 1
0.0205068 -0.487403 -0.487403 2 12 1
0.0204232 -0.489402 -0.489402 2 12 1
0.0203404 -0.4914 -0.4914 2 12 1
0.0202583 -0.493398 -0.493398 2 12 1
0.0201768 -0.495397 -0.495397 2 12 1
0.020096 -0.497395 -0.497395 2 12 1
0.0200158 -0.499393 -0.499393 2 12 1
0.0199363 -0.501392 -0.501392 2 12 1
0.0198574 -0.50339 -0.50339 2 12 1
0.0197791 -0.505389 -0.505389 2 12 1
0.0197015 -0.507387 -0.507387 2 12 1
0.0196244 -0.509386 -0.509386 2 12 1
0.019548 -0.511384 -0.511384 2 12 1
0.0194721 -0.513383 -0.513383 2 12 1
0.0193968 -0.515381 -0.515381 2 12 1
0.0193221 -0.51738 -0.51738 2 12 1
0.019248 -0.519379 -0.519379 2 12 1
0.0191744 -0.521377 -0.521377 2 12 1
0.0191014 -0.523376 -0.523376 2 12 1
0.019029 -0.525375 -0.525375 2 12 1
0.0189571 -0.527373 -0.527373 2 12 1
0.0188857 -0.529372 -0.529372 2 12 1
0.0188149 -0.531371 -0.531371 2 12 1
0.0187446 -0.533369 -0.533369 2 12 1
0.0186748 -0.535368 -0.535368 2 12 1
0.0186056 -0.537367 -0.537367 2 12 1
0.0185368 -0.539366 -0.539366 2 12 1
0.0184686 -0.541365 -0.541365 2 12 1
0.0184008 -0.543364 -0.543364 2 12 1
0.0183336 -0.545362 -0.545362 2 12 1
0.0182668 -0.547361 -0.547361 2 12 1
0.0182006 -0.54936 -0.54936 2 12 1
0.0181348 -0.551359 -0.551359 2 12 1
0.0180694 -0.553358 -0.553358 2 12 1
0.0180046 -0.555357 -0.555357 2 12 1
0.0179402 -0.557356 -0.557356 2 12 1
0.0178763 -0.559355 -0.559355 2 12 1
0.0178128 -0.561354 -0.561354 2 12 1
0.0177498 -0.563353 -0.563353 2 12 1
0.0176872 -0.565352 -0.565352 2 12 1
0.017625 -0.567351 -0.567351 2 12 1
0.0175633 -0.56935 -0.56935 2 12 1
0.017502 -0.571349 -0.571349 2 12 1
0.0174412 -0.573348 -0.573348 2 12 1
0.0173807 -0.575347 -0.575347 2 12 1
0.0173207 -0.577346 -0.577346 2 12 1
0.0172611 -0.579345 -0.579345 2 12 1
0.0172019 -0.581345 -0.581345 2 12 1
0.0171431 -0.583344 -0.583344 2 12 1
0.0170847 -0.585343 -0.585343 2 12 1
0.0170267 -0.587342 -0.587342 2 12 1
0.0169691 -0.589341 -0.589341 2 12 1
0.0169119 -0.59134 -0.59134 2 12 1
0.0168551 -0.59334 -0.59334 2 12 1
0.0167986 -0.595339 -0.595339 2 12 1
0.0167426 -0.597338 -0.597338 2 12 1
0.0166869 -0.599337 -0.599337 2 12 1
0.0166315 -0.601336 -0.601336 2 12 1
0.0165766 -0.603336 -0.603336 2 12 1
0.016522 -0.605335 -0.605335 2 12 1
0.0164677 -0.607334 -0.607334 2 12 1
0.0164138 -0.609333 -0.609333 2 12 1
0.0163603 -0.611333 -0.611333 2 12 1
0.0163071 -0.613332 -0.613332 2 12 1
0.0162542 -0.615331 -0.615331 2 12 1
0.0162017 -0.617331 -0.617331 2 12 1
0.0161496 -0.61933 -0.61933 2 12 1
0.0160977 -0.621329 -0.621329 2 12 1
0.0160462 -0.623329 -0.623329 2 12 1
0.015995 -0.625328 -0.625328 2 12 1
0.0159442 -0.627327 -0.627327 2 12 1
0.0158937 -0.629327 -0.629327 2 12 1
0.0158435 -0.631326 -0.631326 2 12 1
0.0157936 -0.633325 -0.633325 2 12 1
0.015744 -0.635325 -0.635325 2 12 1
0.0156947 -0.637324 -0.637324 2 12 1
0.0156458 -0.639324 -0.639324 2 12 1
0.0155971 -0.641323 -0.641323 2 12 1
0.0155487 -0.643322 -0.643322 2 12 1
0.0155007 -0.645322 -0.645322 2 12 1
0.0154529 -0.647321 -0.647321 2 12 1
0.0154055 -0.649321 -0.649321 2 12 1
0.0153583 -0.65132 -0.65132 2 12 1
0.0153114 -0.65332 -0.65332 2 12 1
0.0152648 -0.655319 -0.655319 2 12 1
0.0152185 -0.657318 -0.657318 2 12 1
0.0151724 -0.659318 -0.659318 2 12 1
0.0151267 -0.661317 -0.661317 2 12 1
0.0150812 -0.663317 -0.663317 2 12 1
0.0150359 -0.665316 -0.665316 2 12 1
0.014991 -0.667316 -0.667316 2 12 1
0.0149463 -0.669315 -0.669315 2 12 1
0.0149019 -0.671315 -0.671315 2 12 1
0.0148578 -0.673314 -0.673314 2 12 1
0.0148139 -0.675314 -0.675314 2 12 1
0.0147702 -0.677313 -0.677313 2 12 1
0.0147269 -0.679313 -0.679313 2 12 1
0.0146837 -0.681313 -0.681313 2 12 1
0.0146409 -0.683312 -0.683312 2 12 1
0.0145983 -0.685312 -0.685312 2 12 1
0.0145559 -0.687311 -0.687311 2 12 1
0.0145138 -0.689311 -0.689311 2 12 1
0.0144719 -0.69131 -0.69131 2 12 1
0.0144302 -0.69331 -0.69331 2 12 1
0.0143888 -0.695309 -0.695309 2 12 1
0.0143477 -0.697309 -0.697309 2 12 1
0.0143067 -0.699309 -0.699309 2 12 1
0.014266 -0.701308 -0.701308 2 12 1
0.0142256 -0.703308 -0.703308 2 12 1
0.0141853 -0.705307 -0.705307 2 12 1
0.0141453 -0.707307 -0.707307 2 12 1
0.0141055 -0.709307 -0.709307 2 12 1
0.0140659 -0.711306 -0.711306 2 12 1
0.0140266 -0.713306 -0.713306 2 12 1
0.0139875 -0.715305 -0.715305 2 12 1
0.0139486 -0.717305 -0.717305 2 12 1
0.0139099 -0.719305 -0.719305 2 12 1
0.0138714 -0.721304 -0.721304 2 12 1
0.0138331 -0.723304 -0.723304 2 12 1
0.0137951 -0.725303 -0.725303 2 12 1
0.0137572 -0.727303 -0.727303 2 12 1
0.0137196 -0.729303 -0.729303 2 12 1
0.0136822 -0.731302 -0.731302 2 12 1
0.0136449 -0.733302 -0.733302 2 12 1
0.0136079 -0.735302 -0.735302 2 12 1
0.0135711 -0.737301 -0.737301 2 12 1
0.0135344 -0.739301 -0.739301 2 12 1
0.013498 -0.741301 -0.741301 2 12 1
0.0134618 -0.7433 -0.7433 2 12 1
0.0134257 -0.7453 -0.7453 2 12 1
0.0133899 -0.7473 -0.7473 2 12 1
0.0133542 -0.749299 -0.749299 2 12 1
0.0133188 -0.751299 -0.751299 2 12 1
0.0132835 -0.753299 -0.753299 2 12 1
0.0132484 -0.755299 -0.755299 2 12 1
0.0132135 -0.757298 -0.757298 2 12 1
0.0131787 -0.759298 -0.759298 2 12 1
0.0131442 -0.761298 -0.761298 2 12 1
0.0131098 -0.763297 -0.763297 2 12 1
0.0130756 -0.765297 -0.765297 2 12 1
0.0130416 -0.767297 -0.767297 2 12 1
0.0130078 -0.769296 -0.769296 2 12 1
0.0129741 -0.771296 -0.771296 2 12 1
0.0129407 -0.773296 -0.773296 2 12 1
0.0129074 -0.775296 -0.775296 2 12 1
0.0128742 -0.777295 -0.777295 2 12 1
0.0128412 -0.779295 -0.779295 2 12 1
0.0128084 -0.781295 -0.781295 2 12 1
0.0127758 -0.783295 -0.783295 2 12 1
0.0127433 -0.785294 -0.785294 2 12 1
0.012711 -0.787294 -0.787294 2 12 1
0.0126789 -0.789294 -0.789294 2 12 1
0.0126469 -0.791293 -0.791293 2 12 1
0.0126151 -0.793293 -0.793293 2 12 1
0.0125834 -0.795293 -0.795293 2 12 1
0.0125519 -0.797293 -0.797293 2 12 1
0.0125206 -0.799292 -0.799292 2 12 1
0.0124894 -0.801292 -0.801292 2 12 1
0.0124584 -0.803292 -0.803292 2 12 1
0.0124275 -0.805292 -0.805292 2 12 1
0.0123968 -0.807292 -0.807292 2 12 1
0.0123662 -0.809291 -0.809291 2 12 1
0.0123358 -0.811291 -0.811291 2 12 1
0.0123055 -0.813291 -0.813291 2 12 1
0.0122754 -0.815291 -0.815291 2 12 1
0.0122454 -0.81729 -0.81729 2 12 1
0.0122156 -0.81929 -0.81929 2 12 1
0.0121859 -0.82129 -0.82129 2 12 1
0.0121563 -0.82329 -0.82329 2 12 1
0.0121269 -0.825289 -0.825289 2 12 1
0.0120977 -0.827289 -0.827289 2 12 1
0.0120686 -0.829289 -0.829289 2 12 1
0.0120396 -0.831289 -0.831289 2 12 1
0.0120108 -0.833289 -0.833289 2 12 1
0.0119821 -0.835288 -0.835288 2 12 1
0.0119535 -0.837288 -0.837288 2 12 1
0.0119251 -0.839288 -0.839288 2 12 1
0.0118968 -0.841288 -0.841288 2 12 1
0.0118686 -0.843288 -0.843288 2 12 1
0.0118406 -0.845287 -0.845287 2 12 1
0.0118127 -0.847287 -0.847287 2 12 1
0.0117849 -0.849287 -0.849287 2 12 1
0.0117573 -0.851287 -0.851287 2 12 1
0.0117298 -0.853287 -0.853287 2 12 1
0.0117024 -0.855286 -0.855286 2 12 1
0.0116752 -0.857286 -0.857286 2 12 1
0.011648 -0.859286 -0.859286 2 12 1
0.011621 -0.861286 -0.861286 2 12 1
0.0115942 -0.863286 -0.863286 2 12 1
0.0115674 -0.865286 -0.865286 2 12 1
0.0115408 -0.867285 -0.867285 2 12 1
0.0115143 -0.869285 -0.869285 2 12 1
0.0114879 -0.871285 -0.871285 2 12 1
0.0114616 -0.873285 -0.873285 2 12 1
0.0114355 -0.875285 -0.875285 2 12 1
0.0114095 -0.877285 -0.877285 2 12 1
0.0113836 -0.879284 -0.879284 2 12 1
0.0113578 -0.881284 -0.881284 2 12 1
