0.0977232 -0.04 -0.04 2 10 1
0.0711138 -0.0322377 -0.0322377 2 10 1
0.0698218 -0.0320273 -0.0320273 2 10 1
0.0684251 -0.0318573 -0.0318573 2 10 1
0.0670424 -0.0316472 -0.0316472 2 10 1
0.0656568 -0.0314433 -0.0314433 2 10 1
0.0642688 -0.0312457 -0.0312457 2 10 1
0.0628785 -0.0310538 -0.0310538 2 10 1
0.0614859 -0.0308674 -0.0308674 2 10 1
0.0600911 -0.0306861 -0.0306861 2 10 1
0.0586941 -0.0305098 -0.0305098 2 10 1
0.0572949 -0.0303381 -0.0303381 2 10 1
0.0558936 -0.0301708 -0.0301708 2 10 1
0.0544901 -0.0300078 -0.0300078 2 10 1
0.0530846 -0.0298488 -0.0298488 2 10 1
0.051677 -0.0296936 -0.0296936 2 10 1
0.0502674 -0.0295422 -0.0295422 2 10 1
0.0488557 -0.0293942 -0.0293942 2 10 1
0.047442 -0.0292496 -0.0292496 2 10 1
0.0460262 -0.0291082 -0.0291082 2 10 1
0.0446084 -0.0289699 -0.0289699 2 10 1
0.0431885 -0.0288345 -0.0288345 2 10 1
0.0417667 -0.028702 -0.028702 2 10 1
0.0403428 -0.0285723 -0.0285723 2 10 1
0.0389168 -0.0284451 -0.0284451 2 10 1
0.0374889 -0.0283206 -0.0283206 2 10 1
0.0360588 -0.0281984 -0.0281984 2 10 1
0.0346268 -0.0280786 -0.0280786 2 10 1
0.0331926 -0.0279611 -0.0279611 2 10 1
0.0317564 -0.0278458 -0.0278458 2 10 1
0.0303182 -0.0277326 -0.0277326 2 10 1
0.0288778 -0.0276215 -0.0276215 2 10 1
0.0274353 -0.0275124 -0.0275124 2 10 1
0.0259907 -0.0274051 -0.0274051 2 10 1
0.024544 -0.0272997 -0.0272997 2 10 1
0.0230952 -0.0271962 -0.0271962 2 10 1
0.0216442 -0.0270943 -0.0270943 2 10 1
0.0201911 -0.0269942 -0.0269942 2 10 1
0.0187358 -0.0268957 -0.0268957 2 10 1
0.0172783 -0.0267988 -0.0267988 2 10 1
0.0158186 -0.0267034 -0.0267034 2 10 1
0.0143567 -0.0266096 -0.0266096 2 10 1
0.0128926 -0.0265172 -0.0265172 2 10 1
0.0114262 -0.0264262 -0.0264262 2 10 1
0.00995757 -0.0263366 -0.0263366 2 10 1
0.00848669 -0.0262484 -0.0262484 2 10 1
0.00701352 -0.0261614 -0.0261614 2 10 1
0.00553806 -0.0260758 -0.0260758 2 10 1
0.00406028 -0.0259913 -0.0259913 2 10 1
0.0025802 -0.0259081 -0.0259081 2 10 1
0.00109777 -0.0258261 -0.0258261 2 10 1
-0.000387011 -0.0257452 -0.0257452 2 10 1
-0.0018742 -0.0256654 -0.0256654 2 10 1
-0.00336368 -0.0255867 -0.0255867 2 10 1
-0.0048556 -0.0255091 -0.0255091 2 10 1
-0.00634992 -0.0254325 -0.0254325 2 10 1
-0.00784666 -0.025357 -0.025357 2 10 1
-0.00934581 -0.0252824 -0.0252824 2 10 1
-0.0108474 -0.0252088 -0.0252088 2 10 1
-0.0123515 -0.0251362 -0.0251362 2 10 1
-0.013858 -0.0250645 -0.0250645 2 10 1
-0.015367 -0.0249937 -0.0249937 2 10 1
-0.0168785 -0.0249237 -0.0249237 2 10 1
-0.0183925 -0.0248547 -0.0248547 2 10 1
-0.019909 -0.0247865 -0.0247865 2 10 1
-0.0214281 -0.0247191 -0.0247191 2 10 1
-0.0229496 -0.0246526 -0.0246526 2 10 1
-0.0244738 -0.0245868 -0.0245868 2 10 1
-0.0260004 -0.0245218 -0.0245218 2 10 1
-0.0275297 -0.0244576 -0.0244576 2 10 1
-0.0290615 -0.0243941 -0.0243941 2 10 1
-0.0305959 -0.0243314 -0.0243314 2 10 1
-0.0321329 -0.0242694 -0.0242694 2 10 1
-0.0336725 -0.0242081 -0.0242081 2 10 1
-0.0352147 -0.0241475 -0.0241475 2 10 1
-0.0367595 -0.0240876 -0.0240876 2 10 1
-0.038307 -0.0240283 -0.0240283 2 10 1
-0.0398571 -0.0239697 -0.0239697 2 10 1
-0.0414098 -0.0239117 -0.0239117 2 10 1
-0.0429651 -0.0238544 -0.0238544 2 10 1
-0.0445232 -0.0237977 -0.0237977 2 10 1
-0.0460839 -0.0237416 -0.0237416 2 10 1
-0.0476472 -0.0236861 -0.0236861 2 10 1
-0.0492132 -0.0236311 -0.0236311 2 10 1
-0.0507819 -0.0235768 -0.0235768 2 10 1
-0.0523533 -0.023523 -0.023523 2 10 1
-0.0539273 -0.0234698 -0.0234698 2 10 1
-0.055504 -0.0234171 -0.0234171 2 10 1
-0.0570835 -0.023365 -0.023365 2 10 1
-0.0586656 -0.0233134 -0.0233134 2 10 1
-0.0602504 -0.0232623 -0.0232623 2 10 1
-0.0618379 -0.0232117 -0.0232117 2 10 1
-0.0634281 -0.0231617 -0.0231617 2 10 1
-0.065021 -0.0231121 -0.0231121 2 10 1
-0.0666166 -0.023063 -0.023063 2 10 1
-0.0682149 -0.0230144 -0.0230144 2 10 1
-0.0698159 -0.0229663 -0.0229663 2 10 1
-0.0714196 -0.0229187 -0.0229187 2 10 1
-0.073026 -0.0228715 -0.0228715 2 10 1
-0.0746351 -0.0228247 -0.0228247 2 10 1
-0.076247 -0.0227784 -0.0227784 2 10 1
-0.0778615 -0.0227326 -0.0227326 2 10 1
-0.0794787 -0.0226871 -0.0226871 2 10 1
-0.0810986 -0.0226421 -0.0226421 2 10 1
-0.0827212 -0.0225975 -0.0225975 2 10 1
-0.0843465 -0.0225534 -0.0225534 2 10 1
-0.0859745 -0.0225096 -0.0225096 2 10 1
-0.0876052 -0.0224663 -0.0224663 2 10 1
-0.0892385 -0.0224233 -0.0224233 2 10 1
-0.0908745 -0.0223807 -0.0223807 2 10 1
-0.0925132 -0.0223385 -0.0223385 2 10 1
-0.0941546 -0.0222967 -0.0222967 2 10 1
-0.0957986 -0.0222553 -0.0222553 2 10 1
-0.0974453 -0.0222142 -0.0222142 2 10 1
-0.0990946 -0.0221735 -0.0221735 2 10 1
-0.100747 -0.0221332 -0.0221332 2 10 1
-0.102401 -0.0220932 -0.0220932 2 10 1
-0.104058 -0.0220536 -0.0220536 2 10 1
-0.105718 -0.0220143 -0.0220143 2 10 1
-0.107381 -0.0219753 -0.0219753 2 10 1
-0.109046 -0.0219367 -0.0219367 2 10 1
-0.110714 -0.0218984 -0.0218984 2 10 1
-0.112384 -0.0218605 -0.0218605 2 10 1
-0.114057 -0.0218229 -0.0218229 2 10 1
-0.115732 -0.0217856 -0.0217856 2 10 1
-0.11741 -0.0217486 -0.0217486 2 10 1
-0.119091 -0.0217119 -0.0217119 2 10 1
-0.120774 -0.0216755 -0.0216755 2 10 1
-0.12246 -0.0216395 -0.0216395 2 10 1
-0.124148 -0.0216037 -0.0216037 2 10 1
-0.125839 -0.0215682 -0.0215682 2 10 1
-0.127532 -0.0215331 -0.0215331 2 10 1
-0.129228 -0.0214982 -0.0214982 2 10 1
-0.130926 -0.0214636 -0.0214636 2 10 1
-0.132627 -0.0214293 -0.0214293 2 10 1
-0.13433 -0.0213952 -0.0213952 2 10 1
-0.136036 -0.0213615 -0.0213615 2 10 1
-0.137744 -0.021328 -0.021328 2 10 1
-0.139455 -0.0212948 -0.0212948 2 10 1
-0.141168 -0.0212618 -0.0212618 2 10 1
-0.142883 -0.0212292 -0.0212292 2 10 1
-0.144601 -0.0211967 -0.0211967 2 10 1
-0.146321 -0.0211646 -0.0211646 2 10 1
-0.148044 -0.0211327 -0.0211327 2 10 1
-0.149768 -0.021101 -0.021101 2 10 1
-0.151496 -0.0210696 -0.0210696 2 10 1
-0.153225 -0.0210385 -0.0210385 2 10 1
-0.154957 -0.0210076 -0.0210076 2 10 1
-0.156692 -0.0209769 -0.0209769 2 10 1
-0.158428 -0.0209465 -0.0209465 2 10 1
-0.160167 -0.0209163 -0.0209163 2 10 1
-0.161908 -0.0208863 -0.0208863 2 10 1
-0.163652 -0.0208566 -0.0208566 2 10 1
-0.165397 -0.0208271 -0.0208271 2 10 1
-0.167145 -0.0207978 -0.0207978 2 10 1
-0.168895 -0.0207687 -0.0207687 2 10 1
-0.170648 -0.0207399 -0.0207399 2 10 1
-0.172402 -0.0207113 -0.0207113 2 10 1
-0.174159 -0.0206829 -0.0206829 2 10 1
-0.175918 -0.0206547 -0.0206547 2 10 1
-0.177679 -0.0206268 -0.0206268 2 10 1
-0.179442 -0.020599 -0.020599 2 10 1
-0.181207 -0.0205714 -0.0205714 2 10 1
-0.182974 -0.0205441 -0.0205441 2 10 1
-0.184744 -0.020517 -0.020517 2 10 1
-0.186515 -0.02049 -0.02049 2 10 1
-0.188289 -0.0204633 -0.0204633 2 10 1
-0.190064 -0.0204367 -0.0204367 2 10 1
-0.191842 -0.0204104 -0.0204104 2 10 1
-0.193622 -0.0203842 -0.0203842 2 10 1
-0.195403 -0.0203583 -0.0203583 2 10 1
-0.197187 -0.0203325 -0.0203325 2 10 1
-0.198973 -0.0203069 -0.0203069 2 10 1
-0.20076 -0.0202815 -0.0202815 2 10 1
-0.20255 -0.0202563 -0.0202563 2 10 1
-0.204341 -0.0202313 -0.0202313 2 10 1
-0.206135 -0.0202064 -0.0202064 2 10 1
-0.20793 -0.0201818 -0.0201818 2 10 1
-0.209727 -0.0201573 -0.0201573 2 10 1
-0.211526 -0.020133 -0.020133 2 10 1
-0.213327 -0.0201088 -0.0201088 2 10 1
-0.21513 -0.0200848 -0.0200848 2 10 1
-0.216934 -0.020061 -0.020061 2 10 1
-0.21874 -0.0200374 -0.0200374 2 10 1
-0.220549 -0.0200139 -0.0200139 2 10 1
-0.222359 -0.0199906 -0.0199906 2 10 1
-0.22417 -0.0199675 -0.0199675 2 10 1
-0.225984 -0.0199445 -0.0199445 2 10 1
-0.227799 -0.0199217 -0.0199217 2 10 1
-0.229616 -0.0198991 -0.0198991 2 10 1
-0.231434 -0.0198766 -0.0198766 2 10 1
-0.233255 -0.0198542 -0.0198542 2 10 1
-0.235077 -0.019832 -0.019832 2 10 1
-0.2369 -0.01981 -0.01981 2 10 1
-0.238726 -0.0197881 -0.0197881 2 10 1
-0.240553 -0.0197664 -0.0197664 2 10 1
-0.242381 -0.0197448 -0.0197448 2 10 1
-0.244212 -0.0197234 -0.0197234 2 10 1
-0.246043 -0.0197021 -0.0197021 2 10 1
-0.247877 -0.0196809 -0.0196809 2 10 1
-0.247878 -0.0196809 -0.0196809 2 10 1
-0.284861 -0.0192867 -0.0192867 2 10 1
-0.286713 -0.0192676 -0.0192676 2 10 1
-0.288584 -0.0192499 -0.0192499 2 10 1
-0.29045 -0.0192318 -0.0192318 2 10 1
-0.292318 -0.0192137 -0.0192137 2 10 1
-0.294186 -0.0191958 -0.0191958 2 10 1
-0.296056 -0.019178 -0.019178 2 10 1
-0.297927 -0.0191603 -0.0191603 2 10 1
-0.299799 -0.0191428 -0.0191428 2 10 1
-0.301672 -0.0191253 -0.0191253 2 10 1
0.0977232 -0.04 -0.04 2 10 1
0.0928701 -0.0735083 -0.0735083 2 10 1
0.091929 -0.0751179 -0.0751179 2 10 1
0.090899 -0.0765816 -0.0765816 2 10 1
0.0899221 -0.0781091 -0.0781091 2 10 1
0.088948 -0.0796433 -0.0796433 2 10 1
0.0879793 -0.0811805 -0.0811805 2 10 1
0.0870169 -0.082722 -0.082722 2 10 1
0.0860613 -0.0842685 -0.0842685 2 10 1
0.0851131 -0.0858208 -0.0858208 2 10 1
0.0841727 -0.0873796 -0.0873796 2 10 1
0.0832404 -0.0889452 -0.0889452 2 10 1
0.0823167 -0.0905183 -0.0905183 2 10 1
0.0814019 -0.0920991 -0.0920991 2 10 1
0.0804963 -0.0936879 -0.0936879 2 10 1
0.0796001 -0.0952851 -0.0952851 2 10 1
0.0787135 -0.0968909 -0.0968909 2 10 1
0.0778368 -0.0985053 -0.0985053 2 10 1
0.0769702 -0.100129 -0.100129 2 10 1
0.0761137 -0.101761 -0.101761 2 10 1
0.0752675 -0.103402 -0.103402 2 10 1
0.0744318 -0.105052 -0.105052 2 10 1
0.0736066 -0.106711 -0.106711 2 10 1
0.0727919 -0.108379 -0.108379 2 10 1
0.071988 -0.110056 -0.110056 2 10 1
0.0711948 -0.111741 -0.111741 2 10 1
0.0704123 -0.113436 -0.113436 2 10 1
0.0696406 -0.115139 -0.115139 2 10 1
0.0688796 -0.11685 -0.11685 2 10 1
0.0681294 -0.11857 -0.11857 2 10 1
0.06739 -0.120298 -0.120298 2 10 1
0.0666613 -0.122034 -0.122034 2 10 1
0.0659432 -0.123778 -0.123778 2 10 1
0.0652357 -0.12553 -0.12553 2 10 1
0.0645388 -0.12729 -0.12729 2 10 1
0.0638524 -0.129057 -0.129057 2 10 1
0.0631764 -0.130831 -0.130831 2 10 1
0.0625108 -0.132612 -0.132612 2 10 1
0.0618553 -0.1344 -0.1344 2 10 1
0.06121 -0.136195 -0.136195 2 10 1
0.0605748 -0.137996 -0.137996 2 10 1
0.0599494 -0.139804 -0.139804 2 10 1
0.0593339 -0.141618 -0.141618 2 10 1
0.0587281 -0.143438 -0.143438 2 10 1
0.0581318 -0.145263 -0.145263 2 10 1
0.0575451 -0.147095 -0.147095 2 10 1
0.0569676 -0.148931 -0.148931 2 10 1
0.0563993 -0.150773 -0.150773 2 10 1
0.0558401 -0.15262 -0.15262 2 10 1
0.0552899 -0.154473 -0.154473 2 10 1
0.0547484 -0.15633 -0.15633 2 10 1
0.0542156 -0.158191 -0.158191 2 10 1
0.0536913 -0.160057 -0.160057 2 10 1
0.0531754 -0.161928 -0.161928 2 10 1
0.0526678 -0.163802 -0.163802 2 10 1
0.0521682 -0.165681 -0.165681 2 10 1
0.0516767 -0.167564 -0.167564 2 10 1
0.051193 -0.16945 -0.16945 2 10 1
0.050717 -0.17134 -0.17134 2 10 1
0.0502485 -0.173233 -0.173233 2 10 1
0.0497875 -0.17513 -0.17513 2 10 1
0.0493338 -0.177031 -0.177031 2 10 1
0.0488873 -0.178934 -0.178934 2 10 1
0.0484478 -0.180841 -0.180841 2 10 1
0.0480152 -0.18275 -0.18275 2 10 1
0.0475894 -0.184663 -0.184663 2 10 1
0.0471702 -0.186578 -0.186578 2 10 1
0.0467576 -0.188496 -0.188496 2 10 1
0.0463514 -0.190416 -0.190416 2 10 1
0.0459515 -0.192339 -0.192339 2 10 1
0.0455577 -0.194264 -0.194264 2 10 1
0.04517 -0.196192 -0.196192 2 10 1
0.0447882 -0.198121 -0.198121 2 10 1
0.0444122 -0.200053 -0.200053 2 10 1
0.044042 -0.201987 -0.201987 2 10 1
0.0436773 -0.203923 -0.203923 2 10 1
0.0433182 -0.205861 -0.205861 2 10 1
0.0429644 -0.207801 -0.207801 2 10 1
0.0426159 -0.209743 -0.209743 2 10 1
0.0422726 -0.211686 -0.211686 2 10 1
0.0419343 -0.213631 -0.213631 2 10 1
0.041601 -0.215578 -0.215578 2 10 1
0.0412727 -0.217526 -0.217526 2 10 1
0.0409491 -0.219476 -0.219476 2 10 1
0.0406302 -0.221427 -0.221427 2 10 1
0.0403159 -0.223379 -0.223379 2 10 1
0.0400062 -0.225333 -0.225333 2 10 1
0.0397008 -0.227289 -0.227289 2 10 1
0.0393998 -0.229245 -0.229245 2 10 1
0.0391031 -0.231203 -0.231203 2 10 1
0.0388106 -0.233162 -0.233162 2 10 1
0.0385222 -0.235122 -0.235122 2 10 1
0.0382377 -0.237084 -0.237084 2 10 1
0.0379573 -0.239046 -0.239046 2 10 1
0.0376807 -0.241009 -0.241009 2 10 1
0.0374079 -0.242974 -0.242974 2 10 1
0.0371389 -0.244939 -0.244939 2 10 1
0.0368735 -0.246905 -0.246905 2 10 1
0.0366117 -0.248873 -0.248873 2 10 1
0.0363534 -0.250841 -0.250841 2 10 1
0.0360986 -0.25281 -0.25281 2 10 1
0.0358471 -0.25478 -0.25478 2 10 1
0.0355991 -0.25675 -0.25675 2 10 1
0.0353542 -0.258721 -0.258721 2 10 1
0.0351126 -0.260694 -0.260694 2 10 1
0.0348741 -0.262666 -0.262666 2 10 1
0.0346388 -0.26464 -0.26464 2 10 1
0.0344064 -0.266614 -0.266614 2 10 1
0.0341771 -0.268589 -0.268589 2 10 1
0.0339507 -0.270565 -0.270565 2 10 1
0.0337271 -0.272541 -0.272541 2 10 1
0.0335064 -0.274518 -0.274518 2 10 1
0.0332884 -0.276495 -0.276495 2 10 1
0.0330732 -0.278473 -0.278473 2 10 1
0.0328607 -0.280451 -0.280451 2 10 1
0.0326507 -0.28243 -0.28243 2 10 1
0.0324434 -0.28441 -0.28441 2 10 1
0.0322386 -0.28639 -0.28639 2 10 1
0.0320363 -0.28837 -0.28837 2 10 1
0.0318365 -0.290351 -0.290351 2 10 1
0.031639 -0.292333 -0.292333 2 10 1
0.0314439 -0.294315 -0.294315 2 10 1
0.0312512 -0.296297 -0.296297 2 10 1
0.0310607 -0.29828 -0.29828 2 10 1
0.0308725 -0.300263 -0.300263 2 10 1
0.0306865 -0.302246 -0.302246 2 10 1
0.0305027 -0.30423 -0.30423 2 10 1
0.030321 -0.306214 -0.306214 2 10 1
0.0301414 -0.308199 -0.308199 2 10 1
0.0299638 -0.310184 -0.310184 2 10 1
0.0297883 -0.312169 -0.312169 2 10 1
0.0296148 -0.314155 -0.314155 2 10 1
0.0294433 -0.316141 -0.316141 2 10 1
0.0292737 -0.318127 -0.318127 2 10 1
0.029106 -0.320114 -0.320114 2 10 1
0.0289402 -0.322101 -0.322101 2 10 1
0.0287762 -0.324088 -0.324088 2 10 1
0.028614 -0.326076 -0.326076 2 10 1
0.0284536 -0.328064 -0.328064 2 10 1
0.028295 -0.330052 -0.330052 2 10 1
0.028138 -0.33204 -0.33204 2 10 1
0.0279828 -0.334028 -0.334028 2 10 1
0.0278293 -0.336017 -0.336017 2 10 1
0.0276774 -0.338006 -0.338006 2 10 1
0.0275271 -0.339995 -0.339995 2 10 1
0.0273784 -0.341985 -0.341985 2 10 1
0.0272313 -0.343975 -0.343975 2 10 1
0.0270857 -0.345965 -0.345965 2 10 1
0.0269417 -0.347955 -0.347955 2 10 1
0.0267992 -0.349945 -0.349945 2 10 1
0.0266581 -0.351936 -0.351936 2 10 1
0.0265185 -0.353926 -0.353926 2 10 1
0.0263803 -0.355917 -0.355917 2 10 1
0.0262435 -0.357908 -0.357908 2 10 1
0.0261082 -0.3599 -0.3599 2 10 1
0.0259741 -0.361891 -0.361891 2 10 1
0.0258415 -0.363883 -0.363883 2 10 1
0.0257102 -0.365875 -0.365875 2 10 1
0.0255801 -0.367867 -0.367867 2 10 1
0.0254514 -0.369859 -0.369859 2 10 1
0.025324 -0.371851 -0.371851 2 10 1
0.0251978 -0.373844 -0.373844 2 10 1
0.0250728 -0.375836 -0.375836 2 10 1
0.024949 -0.377829 -0.377829 2 10 1
0.0248265 -0.379822 -0.379822 2 10 1
0.0247051 -0.381815 -0.381815 2 10 1
0.0245849 -0.383808 -0.383808 2 10 1
0.0244659 -0.385801 -0.385801 2 10 1
0.024348 -0.387795 -0.387795 2 10 1
0.0242312 -0.389788 -0.389788 2 10 1
0.0241155 -0.391782 -0.391782 2 10 1
0.0240009 -0.393776 -0.393776 2 10 1
0.0238873 -0.395769 -0.395769 2 10 1
0.0237749 -0.397763 -0.397763 2 10 1
0.0236634 -0.399758 -0.399758 2 10 1
0.023553 -0.401752 -0.401752 2 10 1
0.0234436 -0.403746 -0.403746 2 10 1
0.0233352 -0.405741 -0.405741 2 10 1
0.0232278 -0.407735 -0.407735 2 10 1
0.0231214 -0.40973 -0.40973 2 10 1
0.023016 -0.411724 -0.411724 2 10 1
0.0229114 -0.413719 -0.413719 2 10 1
0.0228079 -0.415714 -0.415714 2 10 1
0.0227052 -0.417709 -0.417709 2 10 1
0.0226035 -0.419704 -0.419704 2 10 1
0.0225026 -0.4217 -0.4217 2 10 1
0.0224027 -0.423695 -0.423695 2 10 1
0.0223036 -0.42569 -0.42569 2 10 1
0.0222054 -0.427686 -0.427686 2 10 1
0.022108 -0.429681 -0.429681 2 10 1
0.0220115 -0.431677 -0.431677 2 10 1
0.0219158 -0.433672 -0.433672 2 10 1
0.0218209 -0.435668 -0.435668 2 10 1
0.0217269 -0.437664 -0.437664 2 10 1
0.0216336 -0.43966 -0.43966 2 10 1
0.0215412 -0.441656 -0.441656 2 10 1
0.0214495 -0.443652 -0.443652 2 10 1
0.0213586 -0.445648 -0.445648 2 10 1
0.0212684 -0.447644 -0.447644 2 10 1
0.021179 -0.44964 -0.44964 2 10 1
0.00257787 -0.0259081 -0.0259081 2 10 1
0.00553807 -0.0260758 -0.0260758 2 10 1
0.00701355 -0.0261615 -0.0261615 2 10 1
0.00848671 -0.0262484 -0.0262484 2 10 1
0.00995759 -0.0263367 -0.0263367 2 10 1
0.0114262 -0.0264263 -0.0264263 2 10 1
0.0128926 -0.0265173 -0.0265173 2 10 1
0.0143567 -0.0266097 -0.0266097 2 10 1
0.0158186 -0.0267035 -0.0267035 2 10 1
0.0172783 -0.0267989 -0.0267989 2 10 1
0.0187358 -0.0268958 -0.0268958 2 10 1
0.0201911 -0.0269943 -0.0269943 2 10 1
0.0216442 -0.0270944 -0.0270944 2 10 1
0.0230952 -0.0271963 -0.0271963 2 10 1
0.0245441 -0.0272999 -0.0272999 2 10 1
0.0259908 -0.0274052 -0.0274052 2 10 1
0.0274353 -0.0275125 -0.0275125 2 10 1
0.0288778 -0.0276216 -0.0276216 2 10 1
0.0303182 -0.0277328 -0.0277328 2 10 1
0.0317565 -0.027846 -0.027846 2 10 1
0.0331926 -0.0279613 -0.0279613 2 10 1
0.0346268 -0.0280788 -0.0280788 2 10 1
0.0360589 -0.0281986 -0.0281986 2 10 1
0.0374889 -0.0283207 -0.0283207 2 10 1
0.0389169 -0.0284453 -0.0284453 2 10 1
0.0403428 -0.0285725 -0.0285725 2 10 1
0.0417667 -0.0287022 -0.0287022 2 10 1
0.0431885 -0.0288347 -0.0288347 2 10 1
0.0446084 -0.0289701 -0.0289701 2 10 1
0.0460262 -0.0291084 -0.0291084 2 10 1
0.0474419 -0.0292498 -0.0292498 2 10 1
0.0488557 -0.0293945 -0.0293945 2 10 1
0.0502674 -0.0295425 -0.0295425 2 10 1
0.051677 -0.029694 -0.029694 2 10 1
0.0530846 -0.0298492 -0.0298492 2 10 1
0.0544901 -0.0300082 -0.0300082 2 10 1
0.0558935 -0.0301712 -0.0301712 2 10 1
0.0572948 -0.0303385 -0.0303385 2 10 1
0.058694 -0.0305102 -0.0305102 2 10 1
0.060091 -0.0306866 -0.0306866 2 10 1
0.0614858 -0.0308679 -0.0308679 2 10 1
0.0628784 -0.0310544 -0.0310544 2 10 1
0.0642687 -0.0312463 -0.0312463 2 10 1
0.0656567 -0.0314441 -0.0314441 2 10 1
0.0670423 -0.0316479 -0.0316479 2 10 1
0.0684254 -0.0318583 -0.0318583 2 10 1
0.0698059 -0.0320755 -0.0320755 2 10 1
0.0711839 -0.0323002 -0.0323002 2 10 1
0.0725591 -0.0325327 -0.0325327 2 10 1
0.0739314 -0.0327736 -0.0327736 2 10 1
0.0753007 -0.0330235 -0.0330235 2 10 1
0.0766668 -0.0332831 -0.0332831 2 10 1
0.0780296 -0.0335532 -0.0335532 2 10 1
0.0793888 -0.0338346 -0.0338346 2 10 1
0.0807442 -0.0341283 -0.0341283 2 10 1
0.0820954 -0.0344353 -0.0344353 2 10 1
0.0834421 -0.0347569 -0.0347569 2 10 1
0.0847838 -0.0350946 -0.0350946 2 10 1
0.0861202 -0.03545 -0.03545 2 10 1
0.0874504 -0.035825 -0.035825 2 10 1
0.0887739 -0.0362219 -0.0362219 2 10 1
0.0900896 -0.0366433 -0.0366433 2 10 1
0.0913965 -0.0370925 -0.0370925 2 10 1
0.0926931 -0.0375734 -0.0375734 2 10 1
0.0939774 -0.0380906 -0.0380906 2 10 1
0.0952472 -0.0386501 -0.0386501 2 10 1
0.0964992 -0.0392593 -0.0392593 2 10 1
0.0977288 -0.0399278 -0.0399278 2 10 1
0.09893 -0.0406678 -0.0406678 2 10 1
0.100094 -0.041496 -0.041496 2 10 1
0.101207 -0.0424347 -0.0424347 2 10 1
0.102247 -0.0435142 -0.0435142 2 10 1
0.103059 -0.0449688 -0.0449688 2 10 1
0.10376 -0.0465004 -0.0465004 2 10 1
0.104184 -0.0482755 -0.0482755 2 10 1
0.104264 -0.0502186 -0.0502186 2 10 1
0.104023 -0.052189 -0.052189 2 10 1
0.103542 -0.0541069 -0.0541069 2 10 1
0.102896 -0.0559605 -0.0559605 2 10 1
0.102138 -0.0577512 -0.0577512 2 10 1
0.10138 -0.0595421 -0.0595421 2 10 1
0.100467 -0.061228 -0.061228 2 10 1
0.0995313 -0.0628658 -0.0628658 2 10 1
0.0985768 -0.0644742 -0.0644742 2 10 1
0.0976089 -0.0660596 -0.0660596 2 10 1
0.0966317 -0.0676274 -0.0676274 2 10 1
0.0956486 -0.0691819 -0.0691819 2 10 1
0.0946621 -0.0707268 -0.0707268 2 10 1
0.0936744 -0.0722648 -0.0722648 2 10 1
0.0926871 -0.0737986 -0.0737986 2 10 1
0.0917017 -0.0753301 -0.0753301 2 10 1
0.0907195 -0.0768612 -0.0768612 2 10 1
0.0897413 -0.0783934 -0.0783934 2 10 1
0.088768 -0.0799279 -0.0799279 2 10 1
0.0878005 -0.0814658 -0.0814658 2 10 1
0.0868393 -0.0830081 -0.0830081 2 10 1
0.0858851 -0.0845557 -0.0845557 2 10 1
0.0849382 -0.0861092 -0.0861092 2 10 1
0.0839993 -0.0876691 -0.0876691 2 10 1
0.0830686 -0.0892361 -0.0892361 2 10 1
0.0821465 -0.0908106 -0.0908106 2 10 1
0.0812334 -0.0923929 -0.0923929 2 10 1
0.0803295 -0.0939833 -0.0939833 2 10 1
0.0794351 -0.095582 -0.095582 2 10 1
0.0785503 -0.0971893 -0.0971893 2 10 1
0.0776755 -0.0988054 -0.0988054 2 10 1
0.0768107 -0.10043 -0.10043 2 10 1
0.0759561 -0.102064 -0.102064 2 10 1
0.0751119 -0.103707 -0.103707 2 10 1
0.074278 -0.105359 -0.105359 2 10 1
0.0734548 -0.107019 -0.107019 2 10 1
0.0726422 -0.108689 -0.108689 2 10 1
0.0718402 -0.110367 -0.110367 2 10 1
0.071049 -0.112055 -0.112055 2 10 1
0.0702685 -0.113751 -0.113751 2 10 1
0.0694988 -0.115455 -0.115455 2 10 1
0.0687398 -0.117168 -0.117168 2 10 1
0.0679916 -0.11889 -0.11889 2 10 1
0.0672541 -0.120619 -0.120619 2 10 1
0.0665274 -0.122357 -0.122357 2 10 1
0.0658113 -0.124102 -0.124102 2 10 1
0.0651058 -0.125856 -0.125856 2 10 1
0.0644109 -0.127617 -0.127617 2 10 1
0.0637264 -0.129385 -0.129385 2 10 1
0.0630523 -0.13116 -0.13116 2 10 1
0.0623885 -0.132943 -0.132943 2 10 1
0.061735 -0.134732 -0.134732 2 10 1
0.0610915 -0.136528 -0.136528 2 10 1
0.0604581 -0.138331 -0.138331 2 10 1
0.0598346 -0.14014 -0.14014 2 10 1
0.0592209 -0.141955 -0.141955 2 10 1
0.0586169 -0.143775 -0.143775 2 10 1
0.0580224 -0.145602 -0.145602 2 10 1
0.0574374 -0.147434 -0.147434 2 10 1
0.0568616 -0.149272 -0.149272 2 10 1
0.056295 -0.151115 -0.151115 2 10 1
0.0557375 -0.152963 -0.152963 2 10 1
0.0551889 -0.154816 -0.154816 2 10 1
0.054649 -0.156674 -0.156674 2 10 1
0.0541178 -0.158537 -0.158537 2 10 1
0.0535951 -0.160403 -0.160403 2 10 1
0.0530807 -0.162275 -0.162275 2 10 1
0.0525746 -0.16415 -0.16415 2 10 1
0.0520766 -0.166029 -0.166029 2 10 1
0.0515865 -0.167913 -0.167913 2 10 1
0.0511042 -0.1698 -0.1698 2 10 1
0.0506296 -0.171691 -0.171691 2 10 1
0.0501626 -0.173585 -0.173585 2 10 1
0.0497029 -0.175482 -0.175482 2 10 1
0.0492505 -0.177383 -0.177383 2 10 1
0.0488053 -0.179287 -0.179287 2 10 1
0.0483671 -0.181194 -0.181194 2 10 1
0.0479358 -0.183104 -0.183104 2 10 1
0.0475112 -0.185017 -0.185017 2 10 1
0.0470933 -0.186933 -0.186933 2 10 1
0.0466819 -0.188851 -0.188851 2 10 1
0.0462768 -0.190772 -0.190772 2 10 1
0.045878 -0.192695 -0.192695 2 10 1
0.0454854 -0.194621 -0.194621 2 10 1
0.0450988 -0.196549 -0.196549 2 10 1
0.0447181 -0.198479 -0.198479 2 10 1
0.0443432 -0.200411 -0.200411 2 10 1
0.043974 -0.202346 -0.202346 2 10 1
0.0436104 -0.204282 -0.204282 2 10 1
0.0432522 -0.20622 -0.20622 2 10 1
0.0428994 -0.208161 -0.208161 2 10 1
0.0425519 -0.210103 -0.210103 2 10 1
0.0422095 -0.212046 -0.212046 2 10 1
0.0418722 -0.213992 -0.213992 2 10 1
0.0415398 -0.215939 -0.215939 2 10 1
0.0412123 -0.217887 -0.217887 2 10 1
0.0408896 -0.219837 -0.219837 2 10 1
0.0405716 -0.221789 -0.221789 2 10 1
0.0402582 -0.223741 -0.223741 2 10 1
0.0399492 -0.225696 -0.225696 2 10 1
0.0396447 -0.227651 -0.227651 2 10 1
0.0393445 -0.229608 -0.229608 2 10 1
0.0390486 -0.231566 -0.231566 2 10 1
0.0387568 -0.233525 -0.233525 2 10 1
0.0384692 -0.235486 -0.235486 2 10 1
0.0381855 -0.237447 -0.237447 2 10 1
0.0379058 -0.23941 -0.23941 2 10 1
0.0376299 -0.241373 -0.241373 2 10 1
0.0373578 -0.243338 -0.243338 2 10 1
0.0370894 -0.245303 -0.245303 2 10 1
0.0368247 -0.24727 -0.24727 2 10 1
0.0365636 -0.249237 -0.249237 2 10 1
0.0363059 -0.251206 -0.251206 2 10 1
0.0360517 -0.253175 -0.253175 2 10 1
0.0358009 -0.255145 -0.255145 2 10 1
0.0355534 -0.257115 -0.257115 2 10 1
0.0353092 -0.259087 -0.259087 2 10 1
0.0350682 -0.261059 -0.261059 2 10 1
0.0348303 -0.263032 -0.263032 2 10 1
0.0345955 -0.265006 -0.265006 2 10 1
0.0343637 -0.26698 -0.26698 2 10 1
0.0341349 -0.268955 -0.268955 2 10 1
0.033909 -0.270931 -0.270931 2 10 1
0.033686 -0.272907 -0.272907 2 10 1
0.0334658 -0.274884 -0.274884 2 10 1
