-0.124627 -0.15 -0.15 2 8 1
-0.137046 -0.146859 -0.146859 2 8 1
-0.143184 -0.145422 -0.145422 2 8 1
-0.149265 -0.144048 -0.144048 2 8 1
-0.155295 -0.142731 -0.142731 2 8 1
-0.161271 -0.141469 -0.141469 2 8 1
-0.167194 -0.140257 -0.140257 2 8 1
-0.173061 -0.139094 -0.139094 2 8 1
-0.178873 -0.137976 -0.137976 2 8 1
-0.18463 -0.1369 -0.1369 2 8 1
-0.190331 -0.135866 -0.135866 2 8 1
-0.195977 -0.134869 -0.134869 2 8 1
-0.201569 -0.133908 -0.133908 2 8 1
-0.207107 -0.132982 -0.132982 2 8 1
-0.212595 -0.132088 -0.132088 2 8 1
-0.218031 -0.131224 -0.131224 2 8 1
-0.22342 -0.130389 -0.130389 2 8 1
-0.228762 -0.129581 -0.129581 2 8 1
-0.234059 -0.128798 -0.128798 2 8 1
-0.239314 -0.12804 -0.12804 2 8 1
-0.24453 -0.127304 -0.127304 2 8 1
-0.249707 -0.12659 -0.12659 2 8 1
-0.25485 -0.125897 -0.125897 2 8 1
-0.25996 -0.125223 -0.125223 2 8 1
-0.26504 -0.124567 -0.124567 2 8 1
-0.270093 -0.123928 -0.123928 2 8 1
-0.275121 -0.123306 -0.123306 2 8 1
-0.280128 -0.122699 -0.122699 2 8 1
-0.285115 -0.122107 -0.122107 2 8 1
-0.290085 -0.121528 -0.121528 2 8 1
-0.295042 -0.120963 -0.120963 2 8 1
-0.299987 -0.12041 -0.12041 2 8 1
-0.304923 -0.119869 -0.119869 2 8 1
-0.124627 -0.15 -0.15 2 8 1
-0.137046 -0.146859 -0.146859 2 8 1
-0.143184 -0.145422 -0.145422 2 8 1
-0.149265 -0.144048 -0.144048 2 8 1
-0.155295 -0.142731 -0.142731 2 8 1
-0.161271 -0.141469 -0.141469 2 8 1
-0.167194 -0.140257 -0.140257 2 8 1
-0.173061 -0.139094 -0.139094 2 8 1
-0.178873 -0.137976 -0.137976 2 8 1
-0.18463 -0.1369 -0.1369 2 8 1
-0.190331 -0.135866 -0.135866 2 8 1
-0.195977 -0.134869 -0.134869 2 8 1
-0.201569 -0.133908 -0.133908 2 8 1
-0.207107 -0.132982 -0.132982 2 8 1
-0.212595 -0.132088 -0.132088 2 8 1
-0.218031 -0.131224 -0.131224 2 8 1
-0.22342 -0.130389 -0.130389 2 8 1
-0.228762 -0.129581 -0.129581 2 8 1
-0.234059 -0.128798 -0.128798 2 8 1
-0.239314 -0.12804 -0.12804 2 8 1
-0.24453 -0.127304 -0.127304 2 8 1
-0.249707 -0.12659 -0.12659 2 8 1
-0.25485 -0.125897 -0.125897 2 8 1
-0.25996 -0.125223 -0.125223 2 8 1
-0.26504 -0.124567 -0.124567 2 8 1
-0.270093 -0.123928 -0.123928 2 8 1
-0.275121 -0.123306 -0.123306 2 8 1
-0.280128 -0.122699 -0.122699 2 8 1
-0.285115 -0.122107 -0.122107 2 8 1
-0.290085 -0.121528 -0.121528 2 8 1
-0.295042 -0.120963 -0.120963 2 8 1
-0.299987 -0.12041 -0.12041 2 8 1
-0.304923 -0.119869 -0.119869 2 8 1
-0.124627 -0.15 -0.15 2 8 1
-0.112097 -0.153296 -0.153296 2 8 1
-0.105775 -0.155096 -0.155096 2 8 1
-0.0994179 -0.156986 -0.156986 2 8 1
-0.0930387 -0.15897 -0.15897 2 8 1
-0.0866434 -0.161054 -0.161054 2 8 1
-0.0802387 -0.163245 -0.163245 2 8 1
-0.0738321 -0.16555 -0.16555 2 8 1
-0.0674312 -0.167977 -0.167977 2 8 1
-0.0610451 -0.170535 -0.170535 2 8 1
-0.0546833 -0.173233 -0.173233 2 8 1
-0.0483561 -0.176081 -0.176081 2 8 1
-0.042075 -0.179089 -0.179089 2 8 1
-0.0358525 -0.182269 -0.182269 2 8 1
-0.0297021 -0.185633 -0.185633 2 8 1
-0.0236385 -0.189192 -0.189192 2 8 1
-0.0177813 -0.193171 -0.193171 2 8 1
-0.0119588 -0.197175 -0.197175 2 8 1
-0.00627645 -0.201417 -0.201417 2 8 1
-0.000802436 -0.205988 -0.205988 2 8 1
0.00460849 -0.210637 -0.210637 2 8 1
0.00975937 -0.215658 -0.215658 2 8 1
0.0146945 -0.220956 -0.220956 2 8 1
0.0193951 -0.22654 -0.22654 2 8 1
0.0238439 -0.232414 -0.232414 2 8 1
0.0280259 -0.238577 -0.238577 2 8 1
0.0319293 -0.245028 -0.245028 2 8 1
0.035546 -0.25176 -0.25176 2 8 1
0.0388718 -0.258763 -0.258763 2 8 1
0.0419066 -0.266024 -0.266024 2 8 1
0.0446547 -0.273528 -0.273528 2 8 1
0.0471238 -0.281259 -0.281259 2 8 1
0.0493249 -0.289199 -0.289199 2 8 1
0.0512715 -0.297331 -0.297331 2 8 1
0.052979 -0.305637 -0.305637 2 8 1
0.054464 -0.314101 -0.314101 2 8 1
0.0557435 -0.322706 -0.322706 2 8 1
0.0568345 -0.331438 -0.331438 2 8 1
0.0577538 -0.340284 -0.340284 2 8 1
0.0585174 -0.349232 -0.349232 2 8 1
0.0591405 -0.358272 -0.358272 2 8 1
0.0596372 -0.367392 -0.367392 2 8 1
0.0600207 -0.376586 -0.376586 2 8 1
0.060404 -0.385778 -0.385778 2 8 1
0.0605855 -0.395107 -0.395107 2 8 1
0.0606872 -0.404486 -0.404486 2 8 1
0.0607187 -0.413912 -0.413912 2 8 1
0.0606879 -0.42338 -0.42338 2 8 1
0.0606021 -0.432887 -0.432887 2 8 1
0.0604679 -0.442429 -0.442429 2 8 1
0.0602909 -0.452003 -0.452003 2 8 1
0.0600764 -0.461606 -0.461606 2 8 1
0.0598291 -0.471236 -0.471236 2 8 1
0.0595531 -0.48089 -0.48089 2 8 1
0.059252 -0.490566 -0.490566 2 8 1
0.0589292 -0.500263 -0.500263 2 8 1
0.0585877 -0.509979 -0.509979 2 8 1
0.05823 -0.519712 -0.519712 2 8 1
0.0578586 -0.529461 -0.529461 2 8 1
0.0574754 -0.539226 -0.539226 2 8 1
0.0570824 -0.549004 -0.549004 2 8 1
0.0566813 -0.558794 -0.558794 2 8 1
0.0562735 -0.568597 -0.568597 2 8 1
0.0558603 -0.57841 -0.57841 2 8 1
0.0554429 -0.588234 -0.588234 2 8 1
0.0550224 -0.598068 -0.598068 2 8 1
0.0545996 -0.60791 -0.60791 2 8 1
0.0541755 -0.61776 -0.61776 2 8 1
0.0537507 -0.627619 -0.627619 2 8 1
0.053326 -0.637484 -0.637484 2 8 1
0.0529018 -0.647357 -0.647357 2 8 1
0.0524787 -0.657236 -0.657236 2 8 1
0.0520571 -0.667121 -0.667121 2 8 1
0.0516375 -0.677011 -0.677011 2 8 1
0.0512202 -0.686907 -0.686907 2 8 1
0.0508055 -0.696808 -0.696808 2 8 1
0.0503936 -0.706713 -0.706713 2 8 1
0.0499849 -0.716623 -0.716623 2 8 1
0.0495795 -0.726537 -0.726537 2 8 1
0.0491775 -0.736455 -0.736455 2 8 1
0.0487792 -0.746376 -0.746376 2 8 1
0.0483847 -0.756301 -0.756301 2 8 1
0.047994 -0.76623 -0.76623 2 8 1
0.0476073 -0.776161 -0.776161 2 8 1
0.0472247 -0.786096 -0.786096 2 8 1
0.0468461 -0.796033 -0.796033 2 8 1
0.0464717 -0.805973 -0.805973 2 8 1
0.0461015 -0.815915 -0.815915 2 8 1
0.0457355 -0.82586 -0.82586 2 8 1
0.0453737 -0.835807 -0.835807 2 8 1
0.0450161 -0.845756 -0.845756 2 8 1
0.0446628 -0.855707 -0.855707 2 8 1
0.0443137 -0.86566 -0.86566 2 8 1
0.0439687 -0.875615 -0.875615 2 8 1
0.043628 -0.885572 -0.885572 2 8 1
0.0432915 -0.895531 -0.895531 2 8 1
0.0429591 -0.905491 -0.905491 2 8 1
0.0426308 -0.915452 -0.915452 2 8 1
0.0423066 -0.925415 -0.925415 2 8 1
0.0419865 -0.935379 -0.935379 2 8 1
0.0416703 -0.945345 -0.945345 2 8 1
0.0413582 -0.955312 -0.955312 2 8 1
0.0410499 -0.96528 -0.96528 2 8 1
0.0407455 -0.975249 -0.975249 2 8 1
0.040445 -0.98522 -0.98522 2 8 1
0.0401483 -0.995191 -0.995191 2 8 1
0.0398553 -1.00516 -1.00516 2 8 1
0.0395659 -1.01514 -1.01514 2 8 1
0.0392803 -1.02511 -1.02511 2 8 1
0.0389982 -1.03509 -1.03509 2 8 1
0.0387197 -1.04506 -1.04506 2 8 1
0.0384447 -1.05504 -1.05504 2 8 1
0.0381732 -1.06502 -1.06502 2 8 1
0.037905 -1.07499 -1.07499 2 8 1
0.0376402 -1.08497 -1.08497 2 8 1
0.0373787 -1.09495 -1.09495 2 8 1
0.0371205 -1.10493 -1.10493 2 8 1
0.0368655 -1.11491 -1.11491 2 8 1
0.0366136 -1.1249 -1.1249 2 8 1
0.0363649 -1.13488 -1.13488 2 8 1
0.0361192 -1.14486 -1.14486 2 8 1
0.0358765 -1.15484 -1.15484 2 8 1
0.0356368 -1.16483 -1.16483 2 8 1
0.0354001 -1.17481 -1.17481 2 8 1
0.0351662 -1.1848 -1.1848 2 8 1
0.0349351 -1.19478 -1.19478 2 8 1
0.0347069 -1.20477 -1.20477 2 8 1
0.0344814 -1.21475 -1.21475 2 8 1
0.0342586 -1.22474 -1.22474 2 8 1
0.0340385 -1.23473 -1.23473 2 8 1
0.033821 -1.24471 -1.24471 2 8 1
0.033606 -1.2547 -1.2547 2 8 1
0.0333936 -1.26469 -1.26469 2 8 1
0.0331838 -1.27468 -1.27468 2 8 1
0.0329763 -1.28467 -1.28467 2 8 1
0.0327714 -1.29466 -1.29466 2 8 1
0.0325687 -1.30464 -1.30464 2 8 1
0.0323685 -1.31463 -1.31463 2 8 1
0.0321705 -1.32462 -1.32462 2 8 1
0.0319749 -1.33461 -1.33461 2 8 1
0.0317814 -1.3446 -1.3446 2 8 1
0.0315902 -1.3546 -1.3546 2 8 1
0.0314012 -1.36459 -1.36459 2 8 1
0.0312143 -1.37458 -1.37458 2 8 1
0.0310294 -1.38457 -1.38457 2 8 1
0.0308467 -1.39456 -1.39456 2 8 1
0.030666 -1.40455 -1.40455 2 8 1
0.0304873 -1.41454 -1.41454 2 8 1
0.0303106 -1.42454 -1.42454 2 8 1
0.0301358 -1.43453 -1.43453 2 8 1
0.029963 -1.44452 -1.44452 2 8 1
0.029792 -1.45451 -1.45451 2 8 1
0.0296229 -1.46451 -1.46451 2 8 1
0.0294557 -1.4745 -1.4745 2 8 1
0.0292902 -1.48449 -1.48449 2 8 1
0.0291265 -1.49449 -1.49449 2 8 1
0.0289646 -1.50448 -1.50448 2 8 1
0.0288044 -1.51447 -1.51447 2 8 1
0.0286459 -1.52447 -1.52447 2 8 1
0.028489 -1.53446 -1.53446 2 8 1
0.0283338 -1.54446 -1.54446 2 8 1
0.0281802 -1.55445 -1.55445 2 8 1
0.0280283 -1.56445 -1.56445 2 8 1
0.0278779 -1.57444 -1.57444 2 8 1
0.027729 -1.58443 -1.58443 2 8 1
0.0275817 -1.59443 -1.59443 2 8 1
0.0274359 -1.60442 -1.60442 2 8 1
0.0272916 -1.61442 -1.61442 2 8 1
0.0271487 -1.62442 -1.62442 2 8 1
0.0270073 -1.63441 -1.63441 2 8 1
0.0268673 -1.64441 -1.64441 2 8 1
0.0267287 -1.6544 -1.6544 2 8 1
0.0265915 -1.6644 -1.6644 2 8 1
0.0264556 -1.67439 -1.67439 2 8 1
0.0263211 -1.68439 -1.68439 2 8 1
0.0261879 -1.69438 -1.69438 2 8 1
0.0260561 -1.70438 -1.70438 2 8 1
0.0259255 -1.71438 -1.71438 2 8 1
0.0257961 -1.72437 -1.72437 2 8 1
0.0256681 -1.73437 -1.73437 2 8 1
0.0255412 -1.74437 -1.74437 2 8 1
0.0254156 -1.75436 -1.75436 2 8 1
0.0252912 -1.76436 -1.76436 2 8 1
0.0251679 -1.77435 -1.77435 2 8 1
0.0250459 -1.78435 -1.78435 2 8 1
0.0249249 -1.79435 -1.79435 2 8 1
0.0248051 -1.80434 -1.80434 2 8 1
0.0246865 -1.81434 -1.81434 2 8 1
0.0245689 -1.82434 -1.82434 2 8 1
0.0244524 -1.83434 -1.83434 2 8 1
0.024337 -1.84433 -1.84433 2 8 1
0.0242227 -1.85433 -1.85433 2 8 1
0.0241094 -1.86433 -1.86433 2 8 1
0.0239971 -1.87432 -1.87432 2 8 1
0.0238859 -1.88432 -1.88432 2 8 1
0.0237756 -1.89432 -1.89432 2 8 1
0.0236664 -1.90432 -1.90432 2 8 1
0.0235581 -1.91431 -1.91431 2 8 1
0.0234508 -1.92431 -1.92431 2 8 1
0.0233445 -1.93431 -1.93431 2 8 1
