0.0305811 0.01 0.01 2 8 1
0.0298826 0.00974964 0.00974964 2 8 1
0.0295339 0.00962697 0.00962697 2 8 1
0.0291869 0.00950598 0.00950598 2 8 1
0.0288406 0.00938631 0.00938631 2 8 1
0.0284949 0.00926788 0.00926788 2 8 1
0.0281498 0.00915062 0.00915062 2 8 1
0.0278051 0.00903445 0.00903445 2 8 1
0.0274608 0.00891932 0.00891932 2 8 1
0.0271166 0.00880514 0.00880514 2 8 1
0.0267725 0.00869186 0.00869186 2 8 1
0.0264285 0.00857941 0.00857941 2 8 1
0.0260843 0.00846771 0.00846771 2 8 1
0.0257399 0.00835671 0.00835671 2 8 1
0.0253952 0.00824633 0.00824633 2 8 1
0.0250501 0.00813652 0.00813652 2 8 1
0.0247044 0.00802721 0.00802721 2 8 1
0.0243581 0.00791833 0.00791833 2 8 1
0.024011 0.00780983 0.00780983 2 8 1
0.0236631 0.00770163 0.00770163 2 8 1
0.0233141 0.00759368 0.00759368 2 8 1
0.0229641 0.0074859 0.0074859 2 8 1
0.0226129 0.00737824 0.00737824 2 8 1
0.0222603 0.00727063 0.00727063 2 8 1
0.0219064 0.00716299 0.00716299 2 8 1
0.0215509 0.00705528 0.00705528 2 8 1
0.0211937 0.00694741 0.00694741 2 8 1
0.0208347 0.00683933 0.00683933 2 8 1
0.0204739 0.00673096 0.00673096 2 8 1
0.020111 0.00662223 0.00662223 2 8 1
0.0197459 0.00651307 0.00651307 2 8 1
0.0193786 0.0064034 0.0064034 2 8 1
0.0190089 0.00629316 0.00629316 2 8 1
0.0186367 0.00618227 0.00618227 2 8 1
0.0182618 0.00607065 0.00607065 2 8 1
0.0178841 0.00595821 0.00595821 2 8 1
0.0175034 0.00584489 0.00584489 2 8 1
0.0171197 0.00573058 0.00573058 2 8 1
0.0167327 0.00561522 0.00561522 2 8 1
0.0163424 0.00549869 0.00549869 2 8 1
0.0159486 0.00538093 0.00538093 2 8 1
0.0155511 0.00526182 0.00526182 2 8 1
0.0151498 0.00514127 0.00514127 2 8 1
0.0147445 0.00501918 0.00501918 2 8 1
0.0143351 0.00489544 0.00489544 2 8 1
0.0139213 0.00476994 0.00476994 2 8 1
0.0135031 0.00464256 0.00464256 2 8 1
0.0130802 0.00451319 0.00451319 2 8 1
0.0126524 0.00438171 0.00438171 2 8 1
0.0122197 0.00424798 0.00424798 2 8 1
0.0117817 0.00411187 0.00411187 2 8 1
0.0113382 0.00397324 0.00397324 2 8 1
0.0108892 0.00383193 0.00383193 2 8 1
0.0104343 0.00368781 0.00368781 2 8 1
0.0099734 0.0035407 0.0035407 2 8 1
0.00950622 0.00339044 0.00339044 2 8 1
0.00903254 0.00323686 0.00323686 2 8 1
0.00855213 0.00307976 0.00307976 2 8 1
0.00806474 0.00291895 0.00291895 2 8 1
0.00757013 0.00275423 0.00275423 2 8 1
0.00706803 0.00258538 0.00258538 2 8 1
0.00655818 0.00241218 0.00241218 2 8 1
0.0060403 0.0022344 0.0022344 2 8 1
0.00551409 0.00205177 0.00205177 2 8 1
0.00497926 0.00186404 0.00186404 2 8 1
0.0044355 0.00167093 0.00167093 2 8 1
0.0038825 0.00147214 0.00147214 2 8 1
0.00331992 0.00126737 0.00126737 2 8 1
0.00274741 0.0010563 0.0010563 2 8 1
0.00216461 0.000838565 0.000838565 2 8 1
0.00157117 0.000613814 0.000613814 2 8 1
0.000966702 0.000381662 0.000381662 2 8 1
0.000350837 0.000141712 0.000141712 2 8 1
-0.000276528 -0.000106345 -0.000106345 2 8 1
0.0532293 0.01 0.01 2 2 1
0.0532293 0.00394543 0.00394543 2 2 1
0.0305811 0.01 0.01 2 8 1
0.0312853 0.0102548 0.0102548 2 8 1
0.0316384 0.010385 0.010385 2 8 1
0.0319938 0.0105174 0.0105174 2 8 1
0.0323509 0.0106518 0.0106518 2 8 1
0.0327097 0.0107882 0.0107882 2 8 1
0.0330704 0.0109268 0.0109268 2 8 1
0.0334332 0.0110676 0.0110676 2 8 1
0.0337981 0.0112108 0.0112108 2 8 1
0.0341652 0.0113564 0.0113564 2 8 1
0.0345348 0.0115046 0.0115046 2 8 1
0.0349068 0.0116555 0.0116555 2 8 1
0.0352816 0.0118091 0.0118091 2 8 1
0.0356591 0.0119656 0.0119656 2 8 1
0.0360395 0.0121252 0.0121252 2 8 1
0.036423 0.0122879 0.0122879 2 8 1
0.0368097 0.012454 0.012454 2 8 1
0.0371997 0.0126234 0.0126234 2 8 1
0.0375933 0.0127964 0.0127964 2 8 1
0.0379905 0.0129731 0.0129731 2 8 1
0.0383916 0.0131537 0.0131537 2 8 1
0.0387966 0.0133383 0.0133383 2 8 1
0.0392057 0.0135271 0.0135271 2 8 1
0.0396192 0.0137203 0.0137203 2 8 1
0.0400372 0.013918 0.013918 2 8 1
0.0404598 0.0141204 0.0141204 2 8 1
0.0408873 0.0143278 0.0143278 2 8 1
0.0413198 0.0145404 0.0145404 2 8 1
0.0417575 0.0147583 0.0147583 2 8 1
0.0422007 0.0149817 0.0149817 2 8 1
0.0426495 0.015211 0.015211 2 8 1
0.0431042 0.0154464 0.0154464 2 8 1
0.043565 0.0156881 0.0156881 2 8 1
0.0440321 0.0159363 0.0159363 2 8 1
0.0445058 0.0161915 0.0161915 2 8 1
0.0449862 0.0164538 0.0164538 2 8 1
0.0454737 0.0167236 0.0167236 2 8 1
0.0459685 0.0170013 0.0170013 2 8 1
0.0464709 0.0172871 0.0172871 2 8 1
0.0469811 0.0175814 0.0175814 2 8 1
0.0474995 0.0178846 0.0178846 2 8 1
0.0480264 0.0181972 0.0181972 2 8 1
0.0485621 0.0185194 0.0185194 2 8 1
0.0491069 0.0188519 0.0188519 2 8 1
0.0496611 0.019195 0.019195 2 8 1
0.0502251 0.0195492 0.0195492 2 8 1
0.0507994 0.0199152 0.0199152 2 8 1
0.0513842 0.0202933 0.0202933 2 8 1
0.0519799 0.0206842 0.0206842 2 8 1
0.0525871 0.0210886 0.0210886 2 8 1
0.0532061 0.0215071 0.0215071 2 8 1
0.0538374 0.0219403 0.0219403 2 8 1
0.0544815 0.022389 0.022389 2 8 1
0.0551388 0.0228541 0.0228541 2 8 1
0.05581 0.0233362 0.0233362 2 8 1
0.0564955 0.0238363 0.0238363 2 8 1
0.0571959 0.0243554 0.0243554 2 8 1
0.0579118 0.0248944 0.0248944 2 8 1
0.0586439 0.0254543 0.0254543 2 8 1
0.0593929 0.0260363 0.0260363 2 8 1
0.0601593 0.0266417 0.0266417 2 8 1
0.0609441 0.0272716 0.0272716 2 8 1
0.0617478 0.0279274 0.0279274 2 8 1
0.0625714 0.0286106 0.0286106 2 8 1
0.0634156 0.0293227 0.0293227 2 8 1
0.0642814 0.0300655 0.0300655 2 8 1
0.0651697 0.0308406 0.0308406 2 8 1
0.0660816 0.03165 0.03165 2 8 1
0.0670179 0.0324957 0.0324957 2 8 1
0.06798 0.0333799 0.0333799 2 8 1
0.0689687 0.0343049 0.0343049 2 8 1
0.0699856 0.0352732 0.0352732 2 8 1
0.0710317 0.0362876 0.0362876 2 8 1
0.0721084 0.0373509 0.0373509 2 8 1
0.0732173 0.0384663 0.0384663 2 8 1
0.0743597 0.0396371 0.0396371 2 8 1
0.0755373 0.040867 0.040867 2 8 1
0.0767517 0.0421596 0.0421596 2 8 1
0.0780047 0.0435194 0.0435194 2 8 1
0.0792981 0.0449507 0.0449507 2 8 1
0.0806338 0.0464584 0.0464584 2 8 1
0.0820139 0.0480476 0.0480476 2 8 1
0.0834403 0.049724 0.049724 2 8 1
0.0849155 0.0514936 0.0514936 2 8 1
0.0864415 0.0533627 0.0533627 2 8 1
0.0880209 0.0553382 0.0553382 2 8 1
0.0896558 0.0574275 0.0574275 2 8 1
0.0913491 0.0596386 0.0596386 2 8 1
0.0931028 0.0619795 0.0619795 2 8 1
0.0949197 0.0644591 0.0644591 2 8 1
0.0968025 0.067087 0.067087 2 8 1
0.0987532 0.0698726 0.0698726 2 8 1
0.100774 0.0728259 0.0728259 2 8 1
0.102868 0.0759576 0.0759576 2 8 1
0.105036 0.0792786 0.0792786 2 8 1
0.10728 0.0827985 0.0827985 2 8 1
0.109679 0.086739 0.086739 2 8 1
0.112078 0.0906984 0.0906984 2 8 1
0.114555 0.0948868 0.0948868 2 8 1
0.117108 0.0993127 0.0993127 2 8 1
0.119737 0.103983 0.103983 2 8 1
0.122439 0.108904 0.108904 2 8 1
0.125211 0.11408 0.11408 2 8 1
0.128048 0.119512 0.119512 2 8 1
0.130948 0.125201 0.125201 2 8 1
0.133903 0.131145 0.131145 2 8 1
0.136907 0.137339 0.137339 2 8 1
0.139955 0.143776 0.143776 2 8 1
0.14304 0.150449 0.150449 2 8 1
0.146154 0.157347 0.157347 2 8 1
0.149291 0.16446 0.16446 2 8 1
0.152445 0.171776 0.171776 2 8 1
0.155608 0.179281 0.179281 2 8 1
0.158775 0.186963 0.186963 2 8 1
0.16194 0.19481 0.19481 2 8 1
0.1651 0.202809 0.202809 2 8 1
0.168249 0.210947 0.210947 2 8 1
0.171384 0.219214 0.219214 2 8 1
0.174502 0.227598 0.227598 2 8 1
0.17762 0.23598 0.23598 2 8 1
0.1807 0.244584 0.244584 2 8 1
0.183754 0.253274 0.253274 2 8 1
0.186783 0.262045 0.262045 2 8 1
0.189786 0.270891 0.270891 2 8 1
0.192761 0.279804 0.279804 2 8 1
0.195708 0.288778 0.288778 2 8 1
0.198626 0.29781 0.29781 2 8 1
0.201516 0.306893 0.306893 2 8 1
0.204378 0.316023 0.316023 2 8 1
0.207211 0.325198 0.325198 2 8 1
0.210015 0.334413 0.334413 2 8 1
0.212792 0.343664 0.343664 2 8 1
0.215541 0.35295 0.35295 2 8 1
0.218262 0.362268 0.362268 2 8 1
0.220956 0.371615 0.371615 2 8 1
0.223624 0.380989 0.380989 2 8 1
0.226266 0.390389 0.390389 2 8 1
0.228882 0.399812 0.399812 2 8 1
0.231473 0.409257 0.409257 2 8 1
0.23404 0.418722 0.418722 2 8 1
0.236582 0.428207 0.428207 2 8 1
0.2391 0.437709 0.437709 2 8 1
0.241595 0.447228 0.447228 2 8 1
0.244068 0.456763 0.456763 2 8 1
0.246518 0.466313 0.466313 2 8 1
0.248947 0.475877 0.475877 2 8 1
0.251354 0.485454 0.485454 2 8 1
0.253741 0.495044 0.495044 2 8 1
0.256107 0.504645 0.504645 2 8 1
0.258453 0.514257 0.514257 2 8 1
0.260779 0.52388 0.52388 2 8 1
0.263087 0.533513 0.533513 2 8 1
0.265375 0.543155 0.543155 2 8 1
0.267646 0.552807 0.552807 2 8 1
0.269898 0.562467 0.562467 2 8 1
0.272133 0.572135 0.572135 2 8 1
0.27435 0.581811 0.581811 2 8 1
0.276551 0.591494 0.591494 2 8 1
0.278735 0.601185 0.601185 2 8 1
0.280903 0.610882 0.610882 2 8 1
0.283055 0.620586 0.620586 2 8 1
0.285192 0.630296 0.630296 2 8 1
0.287313 0.640012 0.640012 2 8 1
0.289419 0.649734 0.649734 2 8 1
0.291511 0.659461 0.659461 2 8 1
0.293588 0.669194 0.669194 2 8 1
0.295651 0.678932 0.678932 2 8 1
0.297701 0.688674 0.688674 2 8 1
0.299736 0.698421 0.698421 2 8 1
0.301759 0.708173 0.708173 2 8 1
0.303768 0.717929 0.717929 2 8 1
0.305765 0.72769 0.72769 2 8 1
0.307748 0.737454 0.737454 2 8 1
0.30972 0.747223 0.747223 2 8 1
0.311679 0.756995 0.756995 2 8 1
0.313626 0.766771 0.766771 2 8 1
0.315562 0.77655 0.77655 2 8 1
0.317485 0.786333 0.786333 2 8 1
0.319398 0.796119 0.796119 2 8 1
0.321299 0.805909 0.805909 2 8 1
0.32319 0.815701 0.815701 2 8 1
0.325069 0.825497 0.825497 2 8 1
0.326938 0.835295 0.835295 2 8 1
0.328797 0.845097 0.845097 2 8 1
0.330645 0.854901 0.854901 2 8 1
0.332483 0.864708 0.864708 2 8 1
0.334311 0.874517 0.874517 2 8 1
0.336129 0.884329 0.884329 2 8 1
0.337937 0.894144 0.894144 2 8 1
0.339736 0.903961 0.903961 2 8 1
0.341526 0.91378 0.91378 2 8 1
0.343306 0.923602 0.923602 2 8 1
0.345078 0.933426 0.933426 2 8 1
0.34684 0.943252 0.943252 2 8 1
0.348593 0.95308 0.95308 2 8 1
0.350338 0.96291 0.96291 2 8 1
0.352074 0.972742 0.972742 2 8 1
0.353802 0.982576 0.982576 2 8 1
0.355521 0.992412 0.992412 2 8 1
0.357233 1.00225 1.00225 2 8 1
0.0291573 -0.01 -0.01 2 7 1
0.0281276 -0.00963955 -0.00963955 2 7 1
0.0276126 -0.00946162 -0.00946162 2 7 1
0.0270998 -0.00928557 -0.00928557 2 7 1
0.0265881 -0.00911087 -0.00911087 2 7 1
0.0260773 -0.00893744 -0.00893744 2 7 1
0.0255674 -0.00876521 -0.00876521 2 7 1
0.0250584 -0.0085941 -0.0085941 2 7 1
0.0245501 -0.00842404 -0.00842404 2 7 1
0.0240426 -0.00825495 -0.00825495 2 7 1
0.0235358 -0.00808675 -0.00808675 2 7 1
0.0230296 -0.00791937 -0.00791937 2 7 1
0.0225239 -0.00775273 -0.00775273 2 7 1
0.0220188 -0.00758676 -0.00758676 2 7 1
0.0215141 -0.00742138 -0.00742138 2 7 1
0.0210098 -0.00725651 -0.00725651 2 7 1
0.0205059 -0.00709209 -0.00709209 2 7 1
0.0200022 -0.00692802 -0.00692802 2 7 1
0.0194987 -0.00676424 -0.00676424 2 7 1
0.0189953 -0.00660068 -0.00660068 2 7 1
0.018492 -0.00643724 -0.00643724 2 7 1
0.0179887 -0.00627386 -0.00627386 2 7 1
0.0174854 -0.00611045 -0.00611045 2 7 1
0.0169819 -0.00594694 -0.00594694 2 7 1
0.0164783 -0.00578324 -0.00578324 2 7 1
0.0159743 -0.00561928 -0.00561928 2 7 1
0.01547 -0.00545498 -0.00545498 2 7 1
0.0149653 -0.00529024 -0.00529024 2 7 1
0.0144601 -0.00512499 -0.00512499 2 7 1
0.0139543 -0.00495915 -0.00495915 2 7 1
0.0134478 -0.00479262 -0.00479262 2 7 1
0.0129406 -0.00462532 -0.00462532 2 7 1
0.0124325 -0.00445716 -0.00445716 2 7 1
0.0119235 -0.00428805 -0.00428805 2 7 1
0.0114135 -0.0041179 -0.0041179 2 7 1
0.0109024 -0.00394661 -0.00394661 2 7 1
0.0103901 -0.00377408 -0.00377408 2 7 1
0.0098765 -0.00360022 -0.00360022 2 7 1
0.00936149 -0.00342493 -0.00342493 2 7 1
0.00884499 -0.00324809 -0.00324809 2 7 1
0.00832687 -0.00306962 -0.00306962 2 7 1
0.00780703 -0.00288939 -0.00288939 2 7 1
0.00728537 -0.0027073 -0.0027073 2 7 1
0.00676176 -0.00252323 -0.00252323 2 7 1
0.00623609 -0.00233706 -0.00233706 2 7 1
0.00570824 -0.00214867 -0.00214867 2 7 1
0.00517807 -0.00195794 -0.00195794 2 7 1
0.00464546 -0.00176473 -0.00176473 2 7 1
0.00411028 -0.00156891 -0.00156891 2 7 1
0.00357239 -0.00137034 -0.00137034 2 7 1
0.00303165 -0.00116888 -0.00116888 2 7 1
0.0024879 -0.000964381 -0.000964381 2 7 1
0.00194101 -0.000756686 -0.000756686 2 7 1
0.00139081 -0.000545635 -0.000545635 2 7 1
0.000837137 -0.000331063 -0.000331063 2 7 1
0.00027984 -0.000112799 -0.000112799 2 7 1
-0.000281209 0.000109318 0.000109318 2 7 1
0.0291573 -0.01 -0.01 2 7 1
0.0301945 -0.0103655 -0.0103655 2 7 1
0.030713 -0.0105509 -0.0105509 2 7 1
0.0312342 -0.0107387 -0.0107387 2 7 1
0.0317568 -0.0109284 -0.0109284 2 7 1
0.0322808 -0.0111202 -0.0111202 2 7 1
0.0328064 -0.0113141 -0.0113141 2 7 1
0.0333335 -0.0115103 -0.0115103 2 7 1
0.0338621 -0.0117089 -0.0117089 2 7 1
0.0343925 -0.0119098 -0.0119098 2 7 1
0.0349245 -0.0121133 -0.0121133 2 7 1
0.0354583 -0.0123193 -0.0123193 2 7 1
0.0359939 -0.0125281 -0.0125281 2 7 1
0.0365313 -0.0127396 -0.0127396 2 7 1
0.0370706 -0.012954 -0.012954 2 7 1
0.0376119 -0.0131713 -0.0131713 2 7 1
0.0381552 -0.0133917 -0.0133917 2 7 1
0.0387005 -0.0136153 -0.0136153 2 7 1
0.0392479 -0.0138421 -0.0138421 2 7 1
0.0397975 -0.0140723 -0.0140723 2 7 1
0.0403493 -0.014306 -0.014306 2 7 1
0.0409033 -0.0145432 -0.0145432 2 7 1
0.0414597 -0.0147841 -0.0147841 2 7 1
0.0420184 -0.0150288 -0.0150288 2 7 1
0.0425796 -0.0152774 -0.0152774 2 7 1
0.0431432 -0.01553 -0.01553 2 7 1
0.0437094 -0.0157867 -0.0157867 2 7 1
0.0442782 -0.0160477 -0.0160477 2 7 1
0.0448496 -0.016313 -0.016313 2 7 1
0.0454238 -0.0165828 -0.0165828 2 7 1
0.0460008 -0.0168573 -0.0168573 2 7 1
0.0465806 -0.0171365 -0.0171365 2 7 1
0.0471633 -0.0174206 -0.0174206 2 7 1
0.0477491 -0.0177097 -0.0177097 2 7 1
0.0483378 -0.0180039 -0.0180039 2 7 1
0.0489298 -0.0183035 -0.0183035 2 7 1
0.0495249 -0.0186085 -0.0186085 2 7 1
0.0501233 -0.0189192 -0.0189192 2 7 1
0.0507251 -0.0192356 -0.0192356 2 7 1
0.0513304 -0.0195579 -0.0195579 2 7 1
0.0519391 -0.0198863 -0.0198863 2 7 1
0.0525515 -0.0202209 -0.0202209 2 7 1
0.0531676 -0.020562 -0.020562 2 7 1
0.0537874 -0.0209097 -0.0209097 2 7 1
0.0544112 -0.0212641 -0.0212641 2 7 1
0.055039 -0.0216256 -0.0216256 2 7 1
0.0556708 -0.0219943 -0.0219943 2 7 1
0.0563069 -0.0223703 -0.0223703 2 7 1
0.0569472 -0.022754 -0.022754 2 7 1
0.057592 -0.0231455 -0.0231455 2 7 1
0.0582413 -0.023545 -0.023545 2 7 1
0.0588953 -0.0239528 -0.0239528 2 7 1
0.0595541 -0.0243691 -0.0243691 2 7 1
0.0602178 -0.0247942 -0.0247942 2 7 1
0.0608865 -0.0252284 -0.0252284 2 7 1
0.0615604 -0.0256719 -0.0256719 2 7 1
0.0622397 -0.0261249 -0.0261249 2 7 1
0.0629245 -0.0265879 -0.0265879 2 7 1
0.0636149 -0.027061 -0.027061 2 7 1
0.0643111 -0.0275447 -0.0275447 2 7 1
0.0650133 -0.0280392 -0.0280392 2 7 1
0.0657217 -0.0285449 -0.0285449 2 7 1
0.0664364 -0.0290621 -0.0290621 2 7 1
0.0671577 -0.0295912 -0.0295912 2 7 1
0.0678857 -0.0301327 -0.0301327 2 7 1
0.0686207 -0.0306868 -0.0306868 2 7 1
0.0693628 -0.0312541 -0.0312541 2 7 1
0.0701123 -0.031835 -0.031835 2 7 1
0.0708695 -0.0324299 -0.0324299 2 7 1
0.0716346 -0.0330394 -0.0330394 2 7 1
0.0724078 -0.0336639 -0.0336639 2 7 1
0.0731893 -0.034304 -0.034304 2 7 1
0.0739796 -0.0349602 -0.0349602 2 7 1
0.0747789 -0.0356331 -0.0356331 2 7 1
0.0755874 -0.0363234 -0.0363234 2 7 1
0.0764056 -0.0370316 -0.0370316 2 7 1
0.0772336 -0.0377585 -0.0377585 2 7 1
0.078072 -0.0385048 -0.0385048 2 7 1
0.078921 -0.0392712 -0.0392712 2 7 1
0.079781 -0.0400585 -0.0400585 2 7 1
0.0806524 -0.0408676 -0.0408676 2 7 1
0.0815357 -0.0416992 -0.0416992 2 7 1
0.0824312 -0.0425544 -0.0425544 2 7 1
0.0833394 -0.0434341 -0.0434341 2 7 1
0.0842608 -0.0443393 -0.0443393 2 7 1
0.0851959 -0.0452711 -0.0452711 2 7 1
0.0861452 -0.0462306 -0.0462306 2 7 1
0.0871092 -0.0472191 -0.0472191 2 7 1
0.0880886 -0.0482378 -0.0482378 2 7 1
0.0890838 -0.049288 -0.049288 2 7 1
0.0900955 -0.0503712 -0.0503712 2 7 1
0.0911244 -0.0514889 -0.0514889 2 7 1
0.0921711 -0.0526426 -0.0526426 2 7 1
0.0932364 -0.0538341 -0.0538341 2 7 1
0.0943209 -0.0550651 -0.0550651 2 7 1
0.0954256 -0.0563375 -0.0563375 2 7 1
0.0965511 -0.0576533 -0.0576533 2 7 1
0.0976983 -0.0590146 -0.0590146 2 7 1
0.0988681 -0.0604237 -0.0604237 2 7 1
0.100061 -0.061883 -0.061883 2 7 1
0.101279 -0.0633949 -0.0633949 2 7 1
0.102523 -0.0649622 -0.0649622 2 7 1
0.103793 -0.0665878 -0.0665878 2 7 1
0.10509 -0.0682745 -0.0682745 2 7 1
0.106417 -0.0700256 -0.0700256 2 7 1
0.107773 -0.0718446 -0.0718446 2 7 1
0.109161 -0.0737349 -0.0737349 2 7 1
0.110581 -0.0757004 -0.0757004 2 7 1
0.112035 -0.0777451 -0.0777451 2 7 1
0.113524 -0.0798732 -0.0798732 2 7 1
0.115049 -0.0820891 -0.0820891 2 7 1
0.116613 -0.0843978 -0.0843978 2 7 1
0.118216 -0.086804 -0.086804 2 7 1
0.11986 -0.089313 -0.089313 2 7 1
0.121547 -0.0919302 -0.0919302 2 7 1
0.123277 -0.0946614 -0.0946614 2 7 1
0.125053 -0.0975125 -0.0975125 2 7 1
0.126876 -0.10049 -0.10049 2 7 1
0.128747 -0.103599 -0.103599 2 7 1
0.130668 -0.106847 -0.106847 2 7 1
0.13264 -0.110241 -0.110241 2 7 1
0.134664 -0.113787 -0.113787 2 7 1
0.136741 -0.117492 -0.117492 2 7 1
0.138872 -0.121363 -0.121363 2 7 1
0.141058 -0.125405 -0.125405 2 7 1
0.143299 -0.129626 -0.129626 2 7 1
0.145595 -0.134031 -0.134031 2 7 1
0.147947 -0.138625 -0.138625 2 7 1
0.150352 -0.143414 -0.143414 2 7 1
0.152811 -0.148401 -0.148401 2 7 1
0.155322 -0.15359 -0.15359 2 7 1
0.157884 -0.158982 -0.158982 2 7 1
0.160494 -0.16458 -0.16458 2 7 1
0.163149 -0.170383 -0.170383 2 7 1
0.165847 -0.17639 -0.17639 2 7 1
0.168584 -0.182599 -0.182599 2 7 1
0.171358 -0.189007 -0.189007 2 7 1
0.174163 -0.195609 -0.195609 2 7 1
0.176996 -0.202399 -0.202399 2 7 1
0.179854 -0.209371 -0.209371 2 7 1
0.182731 -0.216518 -0.216518 2 7 1
0.185624 -0.223833 -0.223833 2 7 1
0.18853 -0.231307 -0.231307 2 7 1
0.191443 -0.238932 -0.238932 2 7 1
0.194361 -0.2467 -0.2467 2 7 1
0.197281 -0.254601 -0.254601 2 7 1
0.200199 -0.262628 -0.262628 2 7 1
0.203112 -0.270773 -0.270773 2 7 1
0.206019 -0.279027 -0.279027 2 7 1
0.208916 -0.287383 -0.287383 2 7 1
0.211803 -0.295835 -0.295835 2 7 1
0.214676 -0.304374 -0.304374 2 7 1
0.217534 -0.312995 -0.312995 2 7 1
0.220377 -0.321692 -0.321692 2 7 1
0.223203 -0.330459 -0.330459 2 7 1
0.226011 -0.339291 -0.339291 2 7 1
0.228801 -0.348184 -0.348184 2 7 1
0.231571 -0.357133 -0.357133 2 7 1
0.234322 -0.366134 -0.366134 2 7 1
0.237053 -0.375183 -0.375183 2 7 1
0.239763 -0.384277 -0.384277 2 7 1
0.242453 -0.393413 -0.393413 2 7 1
0.245123 -0.402587 -0.402587 2 7 1
0.247772 -0.411798 -0.411798 2 7 1
0.2504 -0.421042 -0.421042 2 7 1
0.253007 -0.430318 -0.430318 2 7 1
0.255595 -0.439622 -0.439622 2 7 1
0.258162 -0.448955 -0.448955 2 7 1
0.260708 -0.458313 -0.458313 2 7 1
0.263235 -0.467695 -0.467695 2 7 1
0.265742 -0.477099 -0.477099 2 7 1
0.26823 -0.486525 -0.486525 2 7 1
0.270698 -0.495971 -0.495971 2 7 1
0.273148 -0.505435 -0.505435 2 7 1
0.275578 -0.514917 -0.514917 2 7 1
0.27799 -0.524415 -0.524415 2 7 1
0.280384 -0.53393 -0.53393 2 7 1
0.282761 -0.543459 -0.543459 2 7 1
0.285119 -0.553002 -0.553002 2 7 1
0.28746 -0.562558 -0.562558 2 7 1
0.289784 -0.572127 -0.572127 2 7 1
0.292092 -0.581708 -0.581708 2 7 1
0.294383 -0.5913 -0.5913 2 7 1
0.296657 -0.600903 -0.600903 2 7 1
0.298916 -0.610516 -0.610516 2 7 1
0.301159 -0.620139 -0.620139 2 7 1
0.303386 -0.629772 -0.629772 2 7 1
0.305599 -0.639413 -0.639413 2 7 1
0.307796 -0.649062 -0.649062 2 7 1
0.309979 -0.65872 -0.65872 2 7 1
0.312147 -0.668385 -0.668385 2 7 1
0.314302 -0.678058 -0.678058 2 7 1
0.316442 -0.687738 -0.687738 2 7 1
0.318568 -0.697425 -0.697425 2 7 1
0.320682 -0.707118 -0.707118 2 7 1
0.322781 -0.716817 -0.716817 2 7 1
0.324868 -0.726523 -0.726523 2 7 1
0.326942 -0.736234 -0.736234 2 7 1
0.329004 -0.745951 -0.745951 2 7 1
0.331053 -0.755673 -0.755673 2 7 1
